ncols        192
nrows        28
xllcorner    1771145
yllcorner    5472694
cellsize     10.000000000000
NODATA_value  -999
-999 -999 -999 -999 -999 -999 -999 -999 -999 -999 -999 -999 -999 -999 -999 -999 -999 -999 -999 -999 -999 -999 -999 -999 19.908574034241862449 13.994827345662169904 24.123412343389400547 17.337765995894354631 10.409461149283551151 7.1567085947776423183 10.531664280387847299 11.77747544286294179 10.966218662114767923 11.817337300273946354 12.060790928787062271 16.062570369166785156 5.8949714595447542109 5.2151412972661654877 5.3470366374075011251 6.5910449007443299152 14.572427392935948021 21.871335241566058016 24.468182349420128929 21.276346263904379441 7.7504876192727421014 6.465296463029036822 3.9181637266391700081 4.3383089500386970983 4.295539387001636733 4.2373068606766493005 4.1908706318740112096 4.3337758088028426329 4.3485095343312138993 4.5174766467511622281 4.4631091985594419924 4.7234671596953914374 4.8637479456552972223 4.9417328339929085246 4.8364386258416889319 5.0415525642153893315 5.0043152729301203507 5.0615703317531872685 5.0420225696832483564 4.9461070401214533021 5.0423263061331047297 5.6396942573157033962 8.0553301961756780258 20.09579655606301074 24.283820206446566914 23.597014317582051035 21.742473192582497887 7.8412117966568146699 7.5139421700062092313 7.2461428845354278749 7.1502713036622376208 7.4539270804862667319 6.7065911303867915549 6.9035805610219593831 7.1848387074588444534 7.1717695325547765606 6.7892148955447391145 6.8236369389484661241 6.6924389545998241857 12.030923332895284261 11.033556944692819002 12.947226575118907732 9.8529371591897554339 12.146529356351786433 9.8693170963262968343 12.349537185258704142 11.97966233884827858 10.411985852650396112 10.717731398635095275 9.4309941881820336107 8.7948821757624848772 9.3423786906554955323 12.898941205859541626 10.0941230031422986 9.178503479992395242 9.1707669067339061542 8.9396989900800498674 9.2754861114049020898 10.681789331750520589 9.6812017341804654791 10.237038873316034682 10.813754080595964879 12.292779669089155092 12.871466903784078539 10.764208152862254408 12.46391195452406464 11.362983294958567626 9.2430461300115069889 9.4197268207321442901 11.022971681781932318 9.7383620117243268055 10.210344627176446863 11.011862193272046184 11.362842138420310434 11.474085614077145223 12.075710410959732855 15.83651276703356281 11.929785204205368032 11.846837667828436835 11.896119388723898069 11.228229324452080107 11.06405660656482759 13.295681005704992117 12.454975985264832516 13.12067542904620332 12.410057255324048242 12.193902026711329611 12.185263521979841528 12.753115988571474659 14.761000683332229144 13.056743653848538855 14.68064641487016786 13.33492835371732177 14.264077874593187545 11.868014846325227296 13.180023129707606699 14.7824508514906654 16.513878267762954977 13.98795191015221917 14.57002804810056773 14.482618374631734071 14.573588035992715461 13.826566714850867967 15.189031005626073778 16.042228541587665092 19.338787034377372009 19.589167977979840884 20.922828844183072761 14.852188368622947223 14.736627238962979547 14.59033758156647842 14.471292969883208457 14.88934352713709508 14.962500697298287022 14.92995235119273012 15.815116002382662685 16.231474041332262459 21.21837631489485787 15.726145326618183873 13.220736293587414423 13.236416729549979721 12.991777711185362065 13.420413524390720994 16.049817618377300477 -999 -999 -999 -999 -999 -999 -999 -999 -999 -999 -999 -999 -999 -999 -999 -999 -999 -999 -999 -999 -999 -999 -999 -999
-999 -999 -999 -999 -999 -999 -999 -999 -999 -999 -999 -999 -999 -999 -999 -999 -999 -999 -999 -999 -999 -999 -999 -999 7.4514476275515395542 19.084448057312247471 11.783626454277092321 11.765565768116703182 9.2260297293046225064 9.0000322276331718996 10.079541912951425431 11.316698147812179087 9.8915863992942583138 10.841636342525756476 11.601729965558579494 17.753387123789256208 5.5687549133052129946 5.2858285912572586795 5.7472874922588657043 20.764644109830420859 17.892087111762080553 26.757787968781752141 21.059295322048264154 7.5846640125679067879 4.7020711331691744661 4.1505009684809213155 4.0478371443833962573 4.0366626829911647079 4.0962890430508611672 4.1356210623765221612 4.1927490433006049386 4.635918724814364289 4.6840077035795282256 5.0737733510559488437 5.5393029846014032458 6.3039165040689502106 8.6783407417016853458 11.382540476193106826 6.0109747946594280776 5.1422866475482740256 5.0779882087898782217 5.0764207401795804486 5.1270724409239827324 5.1020722466482348878 5.1450701066428017327 5.1140132580286064012 5.7200204782375170254 6.2305428621135447997 12.466308451879637431 13.808339448374367109 9.9855500828441989825 10.270571780934153239 14.325470545291654645 7.7677267905115474633 7.3333862008759735929 7.2382603773373261902 7.1135212536035137276 6.8321440578859071735 7.1937380206063679111 9.1965395132732190575 7.105125300660509069 7.0725263238794040532 8.061962660095542077 6.7166275352785724806 8.7635355320828374204 10.033859579681207563 9.8537106022467746413 10.220690893757145901 9.8908995131078079055 10.296165334377080924 14.525360957666837436 10.020983464909651417 9.5010825062849733058 9.3391536347228232273 9.4766058379629107833 12.960986774068681271 14.659481299417873146 11.962584051135806362 9.1814852165797553596 9.0894252828305166503 9.3804264275207955848 9.5837232022792946395 9.2979250227281173835 12.458311868877251172 10.068936751585885858 10.311680908495599596 12.090658864589915567 12.716688450141717226 10.290759931319984233 10.796213472065991468 9.3061174264437944714 9.5906675193536781165 11.312339649352461279 11.344412429553583976 11.279467310036459082 11.447186699361527218 13.118349561070683507 13.812003654081021153 11.931469918188133406 12.580301844821367041 12.412747651704524543 13.380608586613471189 12.679633613556761773 11.875093251207626821 11.892944250675627771 12.146161907912208733 15.809618960613335048 13.385197664361271563 11.729947576272829579 11.974951031043767458 13.241439666108336226 15.537268650750428733 14.836924634001878331 15.634280288725356911 15.653226355884550358 12.796862915197367627 15.417278483900037855 12.73952895750325176 11.844718187036351154 11.724842998211522982 14.418756828568923822 13.159730239353528702 15.709515423296490866 15.838545792819029856 13.656686142364067749 14.99297209333436065 16.578895797029087333 13.719105696168737651 14.240352187057229827 13.947078451841203872 18.122996169643197817 17.33971431592452106 14.63641649928541888 14.146891033713503205 14.173640068449472551 14.375041525017389077 16.625468425697921049 14.813668358120699153 17.069685019802282255 15.967489422382628916 19.281801502811013904 17.148763890216233818 18.650202113219258138 17.59266596083513079 15.768703584904514514 13.273734563686371501 14.181128027455475404 18.903036735556153047 -999 -999 -999 -999 -999 -999 -999 -999 -999 -999 -999 -999 -999 -999 -999 -999 -999 -999 -999 -999 -999 -999 -999 -999
-999 -999 -999 -999 -999 -999 -999 -999 -999 -999 -999 -999 -999 -999 -999 -999 -999 -999 -999 -999 -999 -999 -999 -999 4.6937982375699149884 6.4183748858663873804 8.4101066297974167441 6.2520072925431762201 9.9415748136419370695 9.4935016114907728735 10.191564606751747135 12.536550794047601087 7.6668743292423719993 5.6865033691647992597 6.2134306985826333047 8.5174137363034621018 6.549309245680568381 6.3432566400088727931 6.3859904742898301322 19.376068814610505342 21.118153578379587287 17.88839925402807296 8.6505377143514099458 4.3103169619831405157 4.0659698751565267472 4.2356538836831107986 4.5658224874118271686 4.4512303132415524942 4.512265669740603613 4.6508473403174450667 4.7141119188704125875 5.1556858692898170915 5.6197362557337990907 5.6873563361567649466 6.5084915439606350063 14.985080135571516635 19.404967892733623103 19.910825372194032923 7.9734617739541393533 6.2124062494033864823 6.8992212934622321185 5.4195945456031520138 5.2414767278532048422 5.2093530240302641232 5.195595746729757991 5.2352197569622571649 5.2222613755664255564 5.3104136228390679264 5.4483827022935340523 7.7630559512715038295 14.174669074956158354 18.513455146044098143 25.85252446391440273 17.772485643284081647 8.863974469768477249 7.3649109668909007453 6.8462665255719032942 7.3931625353014052138 13.069518055667247225 7.648729520978842622 7.4069292748378687818 7.0624672306695783774 8.243061664005445266 6.5514243109106988783 7.8739510505621446157 9.1522683293577973274 10.976234118907278514 11.174096329392032345 11.723692375474712435 12.15911029916845898 10.872716423007881659 9.8942231023857214467 9.4813656906450951567 9.7301353537289809736 12.278387943923734227 14.231717905402902602 12.109644647552537222 9.4225182499400759184 9.5482404572651553565 12.407015179575125785 9.4988274842429056832 9.4672195138770121048 9.2265725722821247956 9.5487078481497604798 10.075809040783042292 11.699860574805679647 12.200551452353643356 12.770697158679789496 10.258937100216618532 9.7928186476439602615 12.512087190293526007 11.241049986641387548 14.213370495259775694 11.404686155464329289 12.836914330158503361 13.610247851016531229 13.613347486128041908 14.067724473419902509 12.271467120698540398 14.769319610585316838 11.890136124589584909 13.427109983259876813 14.635139159213583326 12.888045469302326751 12.296875898893235401 12.818035631997211965 14.429981870130953681 12.547637040191366609 11.616080316637434677 11.588392099046963324 12.351958428184756755 12.791169747878202045 14.998813711064261867 12.912960754140495823 12.562093809623918972 16.055010729787912993 12.616358169718594695 12.302292958366894737 11.902893954361905671 11.83035727769893164 12.669116342983828716 12.770989297004577523 12.790828295331914788 12.949368817635678042 13.171632401802854773 15.346117902458580318 17.839760311634158541 18.099097716268467195 17.171109766315684197 19.344644509395966026 18.838884312165735224 14.15691371430501988 14.229073544793406469 14.872941188800519186 14.957824831039030045 14.601409226564911137 14.730386828976447688 14.710442995111776554 15.946790297358459654 17.571845432246941954 17.293289992085014717 19.140855463288094285 15.96122136449923623 13.811992398815206684 16.806646170272816931 15.793498603803794111 17.128655749343810299 15.728170650984425905 -999 -999 -999 -999 -999 -999 -999 -999 -999 -999 -999 -999 -999 -999 -999 -999 -999 -999 -999 -999 -999 -999 -999 -999
-999 -999 -999 -999 -999 -999 -999 -999 -999 -999 -999 -999 -999 -999 -999 -999 -999 -999 -999 -999 -999 -999 -999 -999 4.3487214025400344752 4.244204419535332562 4.5194746021659781832 6.1553733136072326104 13.331095141805487714 15.356851869701424462 18.998259495442496814 22.091345891424435166 5.894944774751214922 5.2757852712934143469 6.9749332551381009182 13.109733577163401819 20.926153563550855097 6.9820833310119860826 17.361656375322631618 10.253384972400610309 8.1982502500142793167 6.0627273387977504981 4.3464187964161906663 4.1164672070508947499 4.6193424827581104353 5.2635135643806698624 5.7052969296079085737 5.7863321656381971891 5.52000000000002089 5.7803096080765934417 6.1389125197281018131 6.2598886808405902471 6.3739314908213202671 6.5491017534628079844 6.9074403878285490777 8.4697019838744882492 16.93948156247807546 17.234536237996312735 7.7209416113992412889 9.113178566111072243 8.7685782306590720481 7.0245350591097501791 6.592048419983708385 5.9980738208469857042 6.0081419197469738691 5.9341764149792215477 5.9624687904034976427 5.3413557818853245607 5.3537656076765998137 5.578313454442155539 6.5273058005128890002 12.901230547519519476 24.392947513066559395 24.936539989733446987 15.574656414210584998 8.5401787018722892242 7.1106208794073770818 6.9874307911486353007 6.8029029668131899555 7.194571791210904621 7.9214959610512520882 9.8823148341612654377 6.7803468573019216592 6.6319964066393772839 7.8281876163479280351 9.4395205915790452167 10.443970842403775379 9.6937042374743800366 12.697699140428312603 12.865086497095532536 9.8454075275296943914 9.6323378797685652586 9.7001203059961991215 9.8604793958600343018 9.6839018157262604092 10.745235962490314208 9.6443456788897847787 10.503259421381111238 9.559834536069589106 12.493900067646768193 12.153438398224150063 12.060218566670686258 11.257509659769494803 9.2585021145584125435 9.6857586845717396073 9.692018555823203485 11.519557865058265733 10.288224734951077366 10.194168366723024732 14.383745729854412687 13.653151211282926525 12.306351071048332813 12.057407728114124978 14.896166802988931366 12.974454718134076359 11.492659700868284034 11.886119699952278239 13.349670865202952541 14.264960231134629964 13.53056441780324981 12.819705878188615955 12.474845816863407322 13.259272428520326059 12.72191246665585318 12.654413447501458023 14.668812024881987099 12.761524066931322352 13.238385014913989224 12.71942276443008879 11.790066124444967599 11.729083600110620011 11.795892911207710441 11.825555883395653112 11.812930882904140617 11.82601178213925408 12.152181145635916337 12.199316671679762081 12.374568612191312766 12.018983330010355459 12.022639405431290172 17.542120665236158317 15.117424643938138118 15.532831643472581717 13.383366111925042219 14.304526739353981668 15.20747198913944942 15.630540249538544373 16.544469736602163579 13.933054771564993501 16.04006643194595938 14.421691448574293304 15.767441730708407377 14.315368449874362966 20.839232694355967368 17.804884746570582621 19.021026195503932144 15.932182682496142334 15.310310477793784401 17.420677860448417817 15.872206665939527781 16.938680041336610316 18.41907206344236414 15.793444028361562914 14.666607721254298013 19.211489739026031742 15.015723461893552226 23.295589552532774746 21.731152679322399024 -999 -999 -999 -999 -999 -999 -999 -999 -999 -999 -999 -999 -999 -999 -999 -999 -999 -999 -999 -999 -999 -999 -999 -999
-999 -999 -999 -999 -999 -999 -999 -999 -999 -999 -999 -999 -999 -999 -999 -999 -999 -999 -999 -999 -999 -999 -999 -999 4.8222850342386491818 4.8906564287319085338 5.2346734812813444648 11.527005514909919981 18.864276154100021898 14.845451847175057836 18.75873318469824369 19.129305100260559414 5.3205982421724939968 8.30422557929191818 8.0297153046071017002 15.80899840919055066 23.372601935835046305 5.4282805352683380917 7.4934732495124540819 5.2470508492485823382 4.4388159649302734167 4.2272189725810704886 4.67239959346759548 5.2629557877692905166 5.5142203572088179797 5.9134007269824984121 5.4504333165741343237 5.2948992975237683112 6.7414459654910263708 6.7534449621864869329 8.5079054162355838287 6.5789019656135270253 6.419190722174967334 6.3794990142392133947 6.9114518559150157628 6.9100159327503405393 8.7584436304895358916 7.4124431916615023397 7.0548532957973861812 6.7335576611907210776 6.9490632682693860289 7.1969468979255104557 7.3883728079098069941 8.7778602907994223159 17.411820168276292975 16.050767974071909805 7.2707373675941280311 7.4429390291620221021 5.5578466662338472659 5.35202388384447314 5.4857870550065701565 7.3594426843664333404 11.493491401434772214 19.2814003089659316 26.558021717663532257 14.160678515202381078 7.6657029642372958023 7.5801400911984533337 6.8459012880144012314 7.2823689029903873049 14.172945626878899361 6.5812805278265731346 6.8592095944021176379 6.7223619213501963898 8.1306642289788015887 11.520054148655813009 9.4808220941176202246 11.61451819581487932 11.419058070425119666 9.9155120742776876597 9.6973838631787891984 9.5060444848442884336 10.583023711290310942 16.084813261904901793 9.6664939810534118436 11.699258226717534015 10.205604593126041735 10.075729327812931402 9.6308398140821669386 9.6630040822995368899 9.8624761774881548604 9.0176805182100512326 9.4676390063298292432 10.856157381978425391 10.121027466870593514 9.7981894162523008873 9.5917993694535166327 11.099548579810260662 18.529047437396279463 11.782741364578093624 12.164503261664295408 14.641785650225491722 12.110626661349575883 12.881275607148404916 13.880872364059520407 14.686542570326343693 16.204189577840732994 16.408895062997213898 14.816270315222221043 12.219023943033773705 17.456372423793940385 12.57563419925057957 12.403421610910726258 13.081210196591689154 12.457828908603396201 12.654755425572497884 12.572623957279892792 12.769698563491060028 14.226774213426054416 14.79823687415931488 15.77480193105785844 12.354832260647885533 14.791480906717271893 13.780406848471416836 12.769551359311938299 15.225761589243168359 14.346579642169755786 14.389141046370021115 15.071439185893382273 12.129995842267005557 13.576643781692414592 13.891459835169337467 14.247776675621091513 16.044906834307955279 14.963818778712422386 13.919797800098342222 16.593954013619516275 14.109496853804959215 14.211347623073040225 16.57747135598323851 16.356010266528873132 14.217600107246333607 14.384758237189004149 15.883094383695651075 20.271046208510757225 17.594031952703652166 14.720389905867810043 16.411548349826595938 15.430991426523823051 18.282818804424749715 18.902417796494653146 16.920091469397632977 17.699736750179180689 21.789099237626952998 15.443128673542332763 14.633784578513928665 16.368297315289652261 20.691162341713262407 -999 -999 -999 -999 -999 -999 -999 -999 -999 -999 -999 -999 -999 -999 -999 -999 -999 -999 -999 -999 -999 -999 -999 -999
-999 -999 -999 -999 -999 -999 -999 -999 -999 -999 -999 -999 -999 -999 -999 -999 -999 -999 -999 -999 -999 -999 -999 -999 11.769402669481845436 13.569427722100675382 14.687534800096987198 8.0178062517962089828 8.6201813628272461187 6.6050999923522342172 11.633212307260279772 6.416254494961867394 5.7835506886052243658 11.109859159475419688 11.514429211539718878 6.9833040434142610309 4.0123498963103045867 3.8327726601750713442 3.8741734316722773457 3.893881546736968513 4.2869964151627462101 5.5623848335521453023 12.884625975072165005 6.5217308069758423983 6.1996685776593523087 12.052998010592601119 15.219993994702086582 7.0716858778734890123 7.8891987153035856295 8.158030245399745084 6.572209813579760862 6.689738141947083605 6.728362594600440616 7.0555611985925725804 7.6208680421225576396 6.9418402146697033572 7.7431817652917578343 6.9328821887029699056 9.2462389642377935672 7.7626787370637444496 8.1428770346156404969 7.4705542255533980978 7.1899129565967569988 13.625608132093583791 20.828683264400243758 25.253061269677040457 21.391001313482352231 14.974795510129991882 7.8509343344373290208 5.4457178172908475844 5.3887547653959968486 5.6232756361559008695 8.1096382999854235152 8.3394912624612125285 20.556094983721592939 27.892215197918893921 12.551093188821011992 11.322099048072905347 6.9064897458652767526 9.734757366005439394 14.679456109540995001 7.2863789607748614685 6.594675773434033772 6.6955415192473468622 7.6789146513210271294 10.447427231039146278 9.8425668073452090567 9.9669831544216549446 10.35620538005586333 12.005313757915935469 10.731715095353751011 10.026852882546609891 9.9370924603582935219 12.371384332888670343 12.374883821247497195 14.534450634617263276 12.163992657962376498 10.025351753588688908 9.88388751960663825 12.522511034285360054 11.409274783650468876 13.005523850997244395 10.098544271959578822 13.744151679807755428 10.214910626096802559 9.5068801446174155956 9.8821586462217538838 16.044889150358947916 13.915557804371179174 14.039617864174674722 15.601267396968802714 12.009524636442934664 11.693202388486577448 12.024849979437297165 13.162602450879234084 14.752552997706931848 13.078379774116806189 12.614399970169568377 15.657920721982375056 15.80708160942756102 16.957666853221525116 12.932346699973022552 14.165224104237029934 15.315261376277632621 13.600911383723762071 13.12587452780820918 12.477420546931206502 14.580407664623049158 13.589000955111758984 13.819147975938683715 11.933897036967131555 16.493393943113904498 13.892599397333913913 14.397378364229437508 14.991777296442263534 14.193964305863653763 17.247354652518588125 18.044440965802014176 12.860190116965029006 12.134429138686675387 13.014666303008986858 14.306365977280611546 15.932452516217264105 15.307828662472129366 14.098332105827267924 14.101412955944889305 16.285827944977864234 14.856783077670995041 14.166547353530759779 14.402665655803689404 15.17160744192946531 19.496847720803405224 16.432490032917115741 14.733616857037109327 17.149736140756125735 17.602737994753670847 15.982796253561387445 15.039930952174184853 19.498935789762249726 15.32422051228380866 14.650796732832674252 16.529861888617315202 22.400624941236571885 19.952147112160194098 15.713053790622605987 15.217305303736583966 15.129730197218806964 16.273001752046013735 -999 -999 -999 -999 -999 -999 -999 -999 -999 -999 -999 -999 -999 -999 -999 -999 -999 -999 -999 -999 -999 -999 -999 -999
-999 -999 -999 -999 -999 -999 -999 -999 -999 -999 -999 -999 -999 -999 -999 -999 -999 -999 -999 -999 -999 -999 -999 -999 15.788415129368686962 13.93985512837306473 10.014395286438817934 6.4399200059752610414 5.0171917044544347419 5.4176218769481954141 6.9529228672240810383 12.55990959374411986 6.080368582555686352 5.4706651471285212551 4.7076466184005534288 3.9288145529733449202 3.6076065086643351876 3.8155154973684943798 4.154619977881708337 6.4134181949016815238 6.5993494112512154359 12.754900142487883841 7.9364431387807909957 9.0671890847954177417 16.244640231564503097 9.1890319060241640869 13.899518884954645159 6.8465482541368007929 6.6499354841263471627 9.6461013084066191681 7.3348379098630394068 6.365425737897711933 6.2898475373473754502 7.6012092037119947108 6.9367766897639153711 6.3835095429352222141 6.3050496833475220271 6.5039910079161495915 7.090655855567709942 8.0793075675971053329 8.3971389493466404019 7.1407772286740014422 7.0231137685328794973 7.4848016552791092337 8.2644681865198332815 12.266922134920216436 27.311297893607022758 26.873290247871992165 11.706690204653302345 6.1188381237218187891 5.3325526531618834269 5.4615412748959393241 6.2854749476297797628 9.3984972140125400131 20.831234653525150691 30.633745872312843517 26.241785303033715593 9.4329443374270951495 10.874521932200735819 7.4300495392486416435 8.2913091746402258764 7.1051099749963224639 6.7869289500768168466 6.6752631967878075514 7.353088753946156686 9.2759572815742927787 9.6844530547049565428 12.155183152599859042 11.910278880875928564 10.646693764855353237 14.436877939198339504 9.4734512495275264854 12.123827161824275223 18.603020827382927394 10.979721173780871979 11.27802689771740674 11.088489036919117581 10.097861608247992393 12.005986893552710981 13.272564465807983325 10.966917052960223344 12.558923893747017786 13.823097385248214408 11.596727653997215057 9.9338260247556249283 9.894101274143352498 9.7288550438841134849 10.613724363728547218 16.041174000822270074 12.74981642377038149 14.024060069339093104 14.771616764817016687 14.591880355712474326 12.86236124660391944 13.792223481568365528 15.096706160732866309 19.243376872464651228 16.021306459333882088 13.972727285718914203 15.317385541258687454 12.843762721991563325 13.66281844180874927 14.703762556140480555 14.81654676721528574 11.935663793875185945 12.876118122590309412 12.43598890766157794 12.575332070926185324 14.866193252443357764 13.181436492093112633 12.143213834644368987 15.963989604543096235 15.127565329802166616 15.3368095040250072 12.99351099651384267 13.266396987452289125 16.286909373748798657 17.68819466034970489 14.020055984025036722 12.254910967261871235 12.309274402965687756 16.138303658428579723 17.14353279706812927 14.183149188841179367 14.55612625061021248 16.324676945097117198 14.988509580736748106 19.554434217660865869 14.611627234274852327 17.124660680677060043 16.728790150593798813 16.377641027009797625 14.87011372620457017 15.311254657105186183 14.75232766235334303 17.53529741129792896 16.377507252553652251 17.40696400678105249 21.644187407387295963 15.066817184311254607 14.668024065755284724 16.121909328100414882 18.594100796884134752 17.855992103230782675 17.955779975133840054 16.548060592142078917 17.308433059316822522 19.958121920386439285 -999 -999 -999 -999 -999 -999 -999 -999 -999 -999 -999 -999 -999 -999 -999 -999 -999 -999 -999 -999 -999 -999 -999 -999
-999 -999 -999 -999 -999 -999 -999 -999 -999 -999 -999 -999 -999 -999 -999 -999 -999 -999 -999 -999 -999 -999 -999 -999 12.562072901237426592 13.306113104428012761 4.9984791294732628941 7.6852870099401622284 5.7187463841262884401 8.8499373571732267152 6.7218592674909416473 6.1344375839865934452 4.7641808832156122833 3.6468740927990346279 3.6101077758885824487 3.5239524182204347014 3.5065127881402902155 4.1737706421232214637 5.4432682928846212178 7.2903541421794475497 7.6795792987998394707 18.355226322172963904 17.945140747772573064 14.601290985271242917 15.740421377925502 7.7323323511268515773 11.137105363887043197 7.131369751684053071 8.2400145786025582595 8.4816692386901841871 7.3241759864731008633 6.4675329930533225209 5.7855273347568729747 5.8768780786566585661 5.8490930342181615131 5.8023326913824746498 5.9520112545110182012 6.1731906345552971516 6.4107964542440107891 6.4737959001026910144 6.7440676977154838667 6.7855122943992407514 6.7616097246105093532 7.1670244570766552528 7.6078650699539727142 8.0161907736599395946 21.756608330278652375 22.689354996807583831 24.095260309731060033 7.6530410013772804945 5.8731015534395449862 5.3871738002172619986 5.6290337933574416951 7.336695604704108753 12.591004039804669645 27.734533616458790561 30.143801991368277982 10.148472303630569513 7.6349898358252001884 7.2888367556629569677 8.6545687665776060982 10.854136291054421903 7.1466330966897420041 6.799675189818699117 7.9701082872700510507 12.81189593057431253 12.773813445875779493 10.906889522445419871 11.770685598098550528 11.644674834231970806 10.829063833138068418 9.5830055953503094912 11.813187136252688347 13.549733894453449778 13.532268687391956874 11.045077447368981893 10.353689083760340139 10.767585966810219844 14.544938791230888953 15.288224072787198082 13.35394963660344203 10.357933566382284241 10.295821693906862748 11.133930976282288228 10.526523160397140089 14.0211956867314953 11.768924934355769807 10.225734772402741868 9.7778166995156894359 15.529071399672320197 12.350276826279097619 13.974509584996424039 12.358647704898089614 10.562122336052206961 11.350333717505675324 12.374803102098576701 14.407813684739428695 16.544237588967774855 14.384185130534444141 14.725253921191519879 12.691184441125981763 14.679782480474067086 15.312015132964635455 18.221820739248361321 13.897853142839146301 13.000691533205518624 12.750826626964228083 14.484401832229144347 13.3605583489750952 13.695103937534309324 11.926754068037872969 13.729409919800428241 15.777039786503481267 14.995497512913919635 13.96439948833748268 13.094573241816032549 15.373920165111204739 13.826629677903653715 13.383614252131572186 12.224543681846498089 12.596856183690947617 14.893798435180411133 15.224757793649249749 17.507026998016232966 14.427883559390945578 14.512892374447432076 16.07301933286119322 15.837084992696492947 16.652879512777850834 15.28324761630974038 16.894255829700938421 18.967425055380935817 26.722043174589856562 20.4728890413008493 22.295284639407380922 22.526660662573057436 20.384396000314460196 21.086864385724513937 21.099771223522370889 14.716720274986348826 14.918639388426958803 15.322794881843547543 16.169973190085940473 15.875888515980662419 15.573519298049228965 15.717516003419717663 15.476568950295625626 15.143205266705114909 -999 -999 -999 -999 -999 -999 -999 -999 -999 -999 -999 -999 -999 -999 -999 -999 -999 -999 -999 -999 -999 -999 -999 -999
-999 -999 -999 -999 -999 -999 -999 -999 -999 -999 -999 -999 -999 -999 -999 -999 -999 -999 -999 -999 -999 -999 -999 -999 3.6417741043868541162 3.8075894277490487383 3.8018345236712685065 3.8025661878346777023 3.9565820362917425435 4.1896197157571553049 4.1756799039573433419 3.90899743324199056 3.6406488804582282093 3.4651886170632799633 3.4452829148334589426 3.68690049436992906 4.6199718072574560424 5.2717534541471762211 5.6193124034036010528 5.0300362486368372927 6.5204232606645078363 16.092980508470979828 15.201681468662547658 10.139771506696824588 9.221232471089837901 7.0909625455090896651 7.2698719027033158468 7.5728734488570612626 7.6952012415315360627 6.1940573771276561388 6.0300975270936962858 5.5920880711366596216 5.729418952023348055 5.6388070822412856842 5.6591709959987834822 5.8670371391354843027 6.0844737793648429047 6.2842347521939112553 6.4492317410688375645 6.4737472573893501959 6.5954643444759248894 6.4935361393250259354 6.6576032399544535778 6.8116235287777406882 7.2384049812555479875 8.126493854429197583 11.357010434291764156 24.767820092650076447 27.394417652184010592 9.4915428075912995354 9.1210987610230507272 5.7326979421139103721 5.5120778981107534378 5.8514180152714887484 9.0374340643522703687 26.739167488120674676 29.646047429494092995 17.074100048601177804 7.4775704119588679575 7.2217043009481676208 8.5011624146499205068 7.6926160513098880145 7.447863678007308863 9.4898929752563017104 10.852867095110683593 11.89511517707117072 12.017151318519182723 12.800237782778911111 12.419699424664859322 9.7907407912896253777 9.6881778347993314782 9.5716315566483078925 12.881408067644839477 11.802397882154867403 10.990482472583229523 11.607566409075337432 12.313108275122690571 10.344712213220001118 10.407599935395644764 12.645084380651383071 12.457936127117104519 13.494636229749492173 10.181866569382631127 11.825144560590766574 12.696518008164138891 12.43697183503008219 15.978961440071975275 9.6987097880088057877 9.9260681304862927732 10.984364805158016054 18.676783334875381115 22.486153371836213211 10.822837568594701807 10.463244659783610402 12.27787961002319328 12.943771951632520256 13.024019622445706545 14.296615895199813906 13.062802834699560606 11.860329537634312302 11.745253842870026162 12.171038802629047026 12.899822518694740836 17.636272631745178785 15.896727733634147484 12.46373029856297876 12.577335554121630068 16.097559755809584203 14.045062608610599852 12.114119071861409793 11.551579713672696315 12.978250579193989722 13.010162383928301821 16.006726636661493757 13.129256742343681452 13.283874756646355308 14.430217655735992466 14.163780660799737632 13.939196474715286556 12.357390299370750952 12.748031691118686837 14.63112347070839192 15.655906859889416438 15.401788577796516222 16.609958102451823692 18.130633163163729193 16.326880934525387801 16.555593793615930309 16.063949023988463694 17.77378957337013432 17.248410678870289559 17.506316375653454998 17.39382387168095434 28.213104648504337746 22.853488561715078475 19.551814251657098964 17.431546642822439708 16.291215778655537605 15.157511517669158607 15.251291639245694753 14.890563563438961481 15.002438495718108058 17.600669269475083922 15.515357925563909802 16.627888809163778205 18.489013151700490312 15.848728284627766172 14.664409958954372826 -999 -999 -999 -999 -999 -999 -999 -999 -999 -999 -999 -999 -999 -999 -999 -999 -999 -999 -999 -999 -999 -999 -999 -999
-999 -999 -999 -999 -999 -999 -999 -999 -999 -999 -999 -999 -999 -999 -999 -999 -999 -999 -999 -999 -999 -999 -999 -999 3.6217050893302915604 3.3791778844176754149 3.2027547276511669772 3.2643211664403537497 3.3291229574942500236 3.6592830903399184983 4.3698896244406650879 7.4384313965094870369 4.8997860647447248894 6.0454717204960264354 8.506444083557308744 5.8804916629185584043 5.5604389770985642727 5.4306123350264332572 5.9079686137374487487 6.6008048229383762262 10.1751693609741789 9.6522074416112051409 8.5631850633885093771 9.1497610739941350744 8.1698209069060609977 6.171160035587784698 5.8198488557301883972 5.6876765755302178817 5.8381218217527743874 5.8351063256041317828 5.8571524060899573527 5.5879146679351636706 5.6479395783397388087 5.7548439608385235644 6.3825125109007911917 6.1154992667775847082 6.4177355601741794544 7.6980854172455810414 7.2526618138892713361 7.4245584440669931681 7.5183905356155156241 6.7538787277525980102 6.7060614008411736364 6.8781935448839091052 6.8475684382659949279 7.2221703534602408325 7.6153526313251083124 24.372602664589539501 17.158492666621402378 11.054243373971125664 8.5779641135553141851 6.2973551057773589079 5.5804797674551815945 5.5616970695018901338 6.2881312608402808451 10.818241222024697734 26.163939437830851631 14.414786339062027665 7.5346826181265234013 7.349544943423285126 7.458510653627715925 9.3077768435762759935 7.469090317703174442 7.5682906104581979534 9.0979011132221785374 11.709913536241161935 9.9516135738429980506 9.9177106705227373595 10.101748086696403561 9.694591694757692224 9.2260650232553462757 9.2800685992428117999 10.394813215317610045 12.963632619737106566 12.506501266973053532 10.617529327572052367 12.832939673677653758 10.4883257624664612 11.513583382273118616 10.205115736094802159 10.628802707499088953 12.599863018090662337 13.516279530896996519 13.398920508476512836 12.779256110943592262 10.78057708281762217 11.825872187088185328 10.991547856211990819 9.6345733317902126913 10.275785302952801459 12.582910911113399877 11.692349348897254302 11.182538249416536402 11.956140575386781322 12.615759256273186395 15.491205281809858008 14.718761109141079046 12.535648121052719972 13.118753745134792865 13.925137009923105325 11.700286697645417178 11.570885310486056952 11.960853496658542028 16.741075635598971161 17.767962179946771073 15.140610853364224297 12.918590456782995446 12.736462374600623804 12.282050044940218569 11.651954183169277002 11.875852010371625411 14.727131286854506342 15.775730931109535504 13.73401824593138798 13.312895932624984496 13.202555587057407394 16.335961503104584835 16.290464250042120398 13.468696235491885105 12.494030986806386352 13.081585071499040041 14.934790908730160908 16.450823846470456147 16.419329233029010595 14.644555786525019769 16.875780625626802589 18.567326200182250773 17.37895035215265338 14.635629053735437211 20.032907492842333852 13.885476069016277734 18.884098533950059107 16.402818413007466347 16.617880653358167109 19.268176854647801832 19.427530966915931288 15.424235295285896541 16.207072410433504217 14.878985660117718837 18.249702850741446269 14.826512405975250886 15.559931752286992435 17.424915020094406515 15.654037534292960743 18.451418564657544152 18.827649614293740399 18.224200469847392725 14.508372813430769455 -999 -999 -999 -999 -999 -999 -999 -999 -999 -999 -999 -999 -999 -999 -999 -999 -999 -999 -999 -999 -999 -999 -999 -999
-999 -999 -999 -999 -999 -999 -999 -999 -999 -999 -999 -999 -999 -999 -999 -999 -999 -999 -999 -999 -999 -999 -999 -999 4.7567821729630743732 4.22041107090529799 5.088210737706407194 5.1775603513784975718 4.6653731672864173774 10.677317758650900714 14.87065766372905351 16.899872599149286856 11.755579370690126595 8.7595596675227209715 8.9919977488134872345 6.862455639050168088 5.7766717046824656023 8.2800587522142627961 11.376479253350868959 9.9283070101438664068 10.361379830200197816 11.036867120642051887 8.6463251526096644994 5.8803862325209079742 5.5529977231480405209 5.5097412090511665994 5.6526356496390235407 5.6943425146019954752 5.7533618782096542787 5.684841832461716038 5.8515684275143522441 6.0521208960390451281 7.2877742780356369323 7.5715345668034608195 7.0993398186411633688 7.5238263199088715183 7.387622825340411481 7.6517239293480825424 7.7039769617941296076 8.3289674894019736229 8.2891069645547048594 7.3809924188959659119 6.7126833222374333587 6.7047206271627812768 6.8756254619292089814 6.975705200146611773 7.5111116501025412262 7.721257481336768258 7.6656552898924346096 7.9495734917878184689 8.2535061314432169866 7.9463069334747329364 5.8400472573452812952 5.5151463161651372857 5.548259086176525301 6.972300874496082379 10.292392532851113884 10.659271265991247191 9.6342382423721488749 9.733227210379792993 10.10631524643495105 7.6779625670686542094 9.1666614092124962809 8.3375824011915504741 15.704141264565777192 10.084051091821372381 11.764395904358758926 11.634181789346614622 11.781086793882888486 9.3654869672367357936 9.3596050596873840988 9.5134017390903427014 10.356237036838070509 12.719891410431989343 10.439162194475940737 14.452538657002584443 10.772683422359756733 11.54508483219461823 12.550470315902860108 11.990240776499691222 10.372980834500818759 10.551816395126147441 12.68761613372259589 11.719918525241224572 12.058329773316906142 9.6548223937335553302 9.9749872854290426716 10.737318817120542036 10.39673027139066086 10.041078604039396893 10.271024624485669108 10.317512604438725532 11.391015609368643879 16.679530915801020541 12.26797540910069273 15.196763070216283253 12.719502438009845591 13.108005544187124158 14.015696748305977337 13.047424160493056533 16.21900678076606539 11.647957384264673308 11.66201695683768591 17.502683061674819243 16.011449952459788193 14.757978088329727129 15.593395150670952276 14.972505219421359257 12.01914686997274373 11.817113113143387082 13.754665724779973957 13.403772470795649596 12.9974934763403418 15.148988857875155034 13.18334976542086423 17.059634663014843881 14.694500695191988981 14.760681375968701445 16.046002609495037206 12.720254767695772458 13.131863590473066949 15.913679087440499416 13.997297758648231891 16.420897145106586379 19.083564288806059039 18.245041680308940357 22.769173033263115258 21.273994790793032905 17.729935162932591197 13.386378156822276608 13.58253801037706765 16.027498270400322156 17.726055602401402211 17.246361157528109942 21.526567986763215146 21.819630005642359549 15.863070941440897244 16.730184196555551779 19.223509205697844493 17.570083695778620836 14.914064048437738919 15.041131985666515547 17.135768170095559526 17.60362424001488435 15.953384754472825335 17.830141435597401056 21.123847865736102847 22.761596770493280673 -999 -999 -999 -999 -999 -999 -999 -999 -999 -999 -999 -999 -999 -999 -999 -999 -999 -999 -999 -999 -999 -999 -999 -999
-999 -999 -999 -999 -999 -999 -999 -999 -999 -999 -999 -999 -999 -999 -999 -999 -999 -999 -999 -999 -999 -999 -999 -999 10.530983261212274016 8.5185617580453687481 8.0949475701524029603 8.8174046199279239033 7.8220820647904680811 11.677403714703810778 16.088020517199574044 9.9799433116347557871 13.39933721806162481 6.7524114711257610111 9.9771256576358968715 9.9142698405106131077 8.6428468616429636739 7.9424608552555611141 9.8729384898117107383 9.2582180591804377201 5.7593708148269220359 5.4115631658904748136 5.3606386178546507892 5.2148740830304394223 5.2781426785988125872 5.5267387882353835593 5.699324011761132347 5.6547082957955456806 5.6374699765079023805 5.8179373910305454132 7.0252289648237891129 7.5918171593912893158 6.9997532356531788622 6.9971342699236940277 6.9958925444286128581 7.5668894342493757676 7.7575116162688200205 7.997144890182791066 7.1298313951756684403 8.1991975351281656259 8.0028654157280865178 8.3093807894082978294 7.3197477757198683435 6.962547442211032056 7.0193976049879847068 7.805198013633993348 7.0741805543539912904 7.1557727741988133019 7.9183137254407345296 20.009605907824724369 7.8638801105378730583 8.8741206477512211137 6.2636189172693645943 5.9649657672155340649 5.5822127658035327613 5.8602225886186793957 10.281433626148908544 22.639722054863248957 21.615294987704796625 8.8507756891566309321 8.2733042809066628109 7.5829692884566490818 8.2648991405939700172 8.8494593009481619106 15.989944618493728612 11.637324635857824617 11.160212931662753633 9.9297534416661008549 10.029523664137819594 10.889094633097260001 9.398311492911931353 13.301573367237907064 12.010199176394042553 12.480809033791864238 11.922844780949573007 10.114117669212333794 11.63673489294681751 13.05166755875997886 10.94388383725719649 10.989960104836873356 9.9233912541353124226 10.940102862560481256 13.087475091452871467 19.604528547577693587 10.113642592292894307 9.9508527277945777456 12.817665365268371858 10.040030711075246472 10.202183381738816337 9.9728875057776118496 10.872616515192996545 10.464452650536792078 10.999639642284927632 14.924829791348953378 12.168229756274815401 15.114915813673379219 14.783914259695810856 12.571791060062285084 14.780198772882117808 13.542360224781624822 12.676047592121541641 15.799349285434104218 13.611534916210324297 15.123350078304243382 13.541952382487517426 17.692934684090658948 13.208552250776897097 13.05155142117748035 11.850185555624822342 11.836149540914261635 14.500271921114714857 15.330323246633453138 12.601035155443428337 13.521021639079043197 14.374310831295725066 13.388801605508890091 16.886727807329194206 15.842932885796907172 13.44056348257974598 12.674834086569417124 12.745368437409638318 12.872855629842801406 12.936537610945718413 12.99790278751657091 13.041597976737673292 13.363967004389699866 13.148602409498066024 12.587550916389341538 13.496201222808840825 16.338919113456565668 19.203835880831793048 17.563855427411073862 21.601641216375011112 16.629015789436401462 22.943691359748175529 22.498024414205882948 18.145335381236446182 22.146581466911172242 16.853917634839838513 19.058261754693877066 16.630653349368383687 14.67921500188885453 14.923724158318755428 16.510122333386593851 15.7111395046454696 15.761347864487042614 19.215619963096756351 16.388838138101078812 -999 -999 -999 -999 -999 -999 -999 -999 -999 -999 -999 -999 -999 -999 -999 -999 -999 -999 -999 -999 -999 -999 -999 -999
-999 -999 -999 -999 -999 -999 -999 -999 -999 -999 -999 -999 -999 -999 -999 -999 -999 -999 -999 -999 -999 -999 -999 -999 10.149922432470495082 10.761844450318980293 10.436481835457751544 9.7872842490427665041 11.918236111642020347 11.754216076743606578 11.658121399269660401 11.774263779331739954 9.0944618645698689363 9.3829902013545112283 9.7328690898247014474 9.6285272888030899452 8.3811135742561546635 5.5194668430122701963 5.3846834676074388781 5.2876964092680864837 5.2062533103715331606 5.2382439717490552056 5.2748061434220954169 5.2568487682314124498 5.3110205958846545826 5.5392781813179645667 5.5354890504220231051 5.4742692469206204464 5.7099535127869662787 7.0056074479407284272 7.1669715844978547636 6.9545351233889487474 7.4566466845381773609 8.0353517939311274176 6.7410663765883747089 7.1223082731027895775 7.0517059035699336533 7.2954536654002275498 9.1530916292082284969 9.5187252478586259485 7.6041193698665479062 8.1301440546274221788 7.925820619405931744 7.4325014767385297887 8.3602165480766430505 8.7521824556986747012 7.0912254415315931766 7.4162567733328979003 8.8811314250483821553 20.082314934937478768 7.6058999126633004551 7.9195025381429156042 11.756356178104226728 6.3996961774088507724 5.6650344868848909741 5.6503751080531312567 8.1724625065619367348 12.749206469341560322 17.479000178614001015 7.9630562613024222784 7.3147194153173966669 7.4527819698743966725 7.5537650486534611005 8.0326246815193389494 14.94633550181012005 12.157005489420047439 9.7409418386603476847 12.516718363189818675 10.048395916675580963 9.5259451752530761581 9.3552890309995984097 12.337867943097288403 11.859579960398848542 11.698235523810877723 10.058941943594284396 10.173053454963143949 10.061955909504266771 12.310377861126994503 11.547086066399952387 11.592199073872516024 15.035747223918518145 11.403811703209511208 10.689701308775159561 10.603759718380286969 10.765979442579636682 11.192212390553827106 10.338695421831314292 11.714042565883042712 12.282374535250509595 9.9434375977185798234 10.023994573201376213 10.400716641358675574 10.974226562798868656 11.084155855577634497 12.578233896978831652 14.116238233436686045 13.674111336610673462 12.63447371952674736 16.282557367117913572 12.289668095181648155 12.806055298947384813 13.363490264327589685 16.134713879218907095 13.503528211587818575 13.1406971390940015 16.400163666478150049 15.924867325052616707 13.037385428633248452 13.04400524646339754 13.427588156117080231 15.345017202949939872 13.718827298185425789 12.814328529440629723 15.665291421746971423 13.193083875962431151 14.186654725526537391 13.32833512212830307 15.292659814440748178 14.367455405821820236 12.69724311912653647 12.713572204888516026 14.122667670215669489 13.693338265256715047 14.59230715639577447 13.436124329660311005 18.014351780745634812 16.976355478688216039 14.658258049226558839 18.947366398851105629 20.784013864075784994 16.063517517758242548 14.098447815553150519 16.796140562716846745 18.833263565652103466 16.304973057389393176 21.968066065981183499 16.194877376886019249 14.711704962700913768 14.588363459115720744 16.545461066323003507 14.867733402904852014 19.397402459641728711 19.550937698377463647 16.42012214305998441 17.927185340790295243 15.397633012188439494 16.017823527450076426 16.365744148435179994 -999 -999 -999 -999 -999 -999 -999 -999 -999 -999 -999 -999 -999 -999 -999 -999 -999 -999 -999 -999 -999 -999 -999 -999
-999 -999 -999 -999 -999 -999 -999 -999 -999 -999 -999 -999 -999 -999 -999 -999 -999 -999 -999 -999 -999 -999 -999 -999 9.9190464962918696301 8.830466791885845268 5.6277254207567422029 9.7804134886830649265 10.207318947440549906 11.910553442866110174 9.4840055322735246079 10.415091800642363395 7.4268258528246589023 10.112603908442503453 5.8771832637304060043 5.7474224188128966162 5.2025888585521231633 5.3148679071105684457 5.2034481444433415831 5.1556968556040327911 5.2572361405329894879 5.2193045235521946523 5.2237259251365246726 5.2335060346292090472 5.281291002461347972 5.3733000798597547742 5.4227255247513177494 5.5390930777820948094 6.9809234361427332516 7.4515459211950973994 6.9682643606013670023 8.0690808667830342671 7.512154287802722763 7.0586062281990082923 6.7339351930046404959 7.2225483979872144857 7.4758797835699688505 9.4591065432628624876 11.610790132676202191 10.628778609046618087 7.5937927314628588249 8.451462001419425718 8.2550614825210519854 7.3767232749906579414 8.5967912831046042754 8.4408877435088243146 8.1213785496435999534 7.1961517911339463183 10.643342951649383821 23.104669440368013511 10.59705721569989656 9.5381703456813564657 7.7611693343488354913 6.6197374219608349222 5.7886532758369622087 5.6903301712193856687 6.4125254099022788168 12.19622982077743778 8.4014596179057434711 7.6454256630014931773 7.3561149817822348851 7.5572400901493290704 7.518116224852945173 7.5373303828987037178 8.2301001255227994591 9.9347181738868037826 9.7533001278213848906 11.966778717979311253 10.916019496421387913 10.266539051977940034 9.3950475501129702138 9.4445051491141036593 11.607886020303329389 10.742761843787027587 10.442734412870747107 11.562998115337428828 10.710926281515796177 10.799237764102731063 10.608407285392949859 10.468930728797300134 12.117677762817928411 10.702050101330987886 10.336885545555524857 11.284646460976077265 13.832309144976276727 10.569441044834292143 13.042632272603054133 10.924957883430757022 12.99835319049108584 10.544621130118315477 9.9772264846132809879 10.765282772906275 11.227224068247203093 10.957329094530724234 12.266175119472661592 14.961903606755583951 12.601715925981785915 14.483676008525423029 15.345490809007531041 15.592511926084217322 12.65384693516503134 14.182546902475175798 13.494934886509206251 14.612576731286251785 13.333981580054869553 14.258990331395565931 13.196175852530773298 16.989540780170738543 16.04214859914766933 14.945756615008704671 14.793736873051075875 13.573610801089509792 15.348800529188723729 13.426693363912908907 13.341828391764510187 13.400200041704444232 15.921678443282536008 15.983556248152154922 13.448840424151986994 13.946150095613571551 12.962085733447256786 15.786155803895871585 15.976361546833453886 14.519070195321068795 15.414087581897817358 13.910982807203442491 14.045346244503368993 15.253170628184410162 15.85335917655736182 13.915554491365957901 13.878163895880247125 15.942564178039342337 17.912188526540518296 18.206615983396311265 22.261243986372232229 21.835041723752500076 18.512557376069331383 14.382926881980736766 15.428045638264956452 18.312908328846543071 17.123181917545384323 21.665150767254107933 17.358687137806473544 18.324197121979082681 18.617951651679799596 16.909424156824915286 16.843912680781933489 16.88860001085591378 -999 -999 -999 -999 -999 -999 -999 -999 -999 -999 -999 -999 -999 -999 -999 -999 -999 -999 -999 -999 -999 -999 -999 -999
-999 -999 -999 -999 -999 -999 -999 -999 -999 -999 -999 -999 -999 -999 -999 -999 -999 -999 -999 -999 -999 -999 -999 -999 6.6459382409982579176 4.3555648140115952316 8.9667930739620853586 5.0624922117524224774 7.5767784407386411516 7.8637672759478913775 10.478981527912141658 5.32715316826093499 5.3320406188550366622 5.1417587901038661613 5.2485648927156560717 5.2265124548173327312 5.0659101065914047268 5.0735550302381380305 5.1496369197804297002 5.1777480683167835807 5.1823078772493555988 5.1513382671422851544 5.1661276343232502839 5.1189126986553725729 5.2793976285365493695 5.4426042837114048112 5.5864552390806787585 6.6644292134001172911 7.5192821342749267544 7.0868421601879303395 6.5656708733332376227 6.9872157725339052448 6.9378324932735733199 7.0323146570042478487 6.8812194182021650946 7.6401900698230083009 10.658490015293040187 14.492117775603409413 17.293057501743888338 12.747484285018300554 8.3537284064161454467 7.9148023400100653291 8.3316168480113166339 8.839379536435611584 8.3504186217912472756 7.9884649472365989453 7.5357670385534119006 6.6205405953358118509 7.9366528530730251489 20.506586051704836393 24.741521853494923278 22.021756711708050602 9.6077635345125500521 6.9749971976101718951 5.924543682888123719 5.7474397177239904266 5.978010015619671158 10.47084084434473894 10.030744488250643798 7.831336729077017722 7.4263792987782224486 7.4762412022243003307 7.5848008615302386914 7.7457285554739554456 15.307800155742272707 9.895631245924144892 9.7950901351293939712 12.095385024708347643 10.393309775063876543 10.166223201929836861 9.469879586031089147 10.242502814827961544 9.8821868483882937539 11.496995959237636953 12.744829518904472465 12.254677762523089157 11.785778792161538675 10.317540845186929488 13.245759348109981346 12.485066828803571326 10.708073722629077196 11.582063792351144471 15.1120887095357741 11.666749309841609517 11.682050820232898758 10.360472140269076036 10.258239110055932031 10.488146056380676541 12.21675946967638815 10.232257387424731121 12.09911931720923306 13.522264121304234052 10.763937467101706957 10.928918964844262618 11.06735488926650568 11.579272635125521518 16.513749987373255834 12.46621525590613544 14.953567165843228537 12.384400390423008886 15.181812673245216772 12.82219631028799256 12.638298475189893466 12.992447495505896171 13.178654333747195082 16.325795682142455689 15.019904071490287834 15.138972012009626056 15.414782812332042283 13.039881296508248454 16.617096485149314589 16.28961224128470775 13.195957988970908659 16.232456315336975194 13.781857433411619951 13.254641805772486407 13.202908942459197661 13.839501819135101357 13.557537455761082157 15.030228732810192227 13.047181075236318648 13.532016600080206459 15.943586963006142199 14.564473875634856626 13.191768727932645433 14.70333648367296675 13.929566392082708859 16.262868626954912088 15.883408379730969529 18.906506046381974073 15.036633101867023399 17.079557732420532545 17.349136601748181619 18.842083963151040393 22.652733397118833381 19.409380960377095704 17.937645836647252651 14.693145131149236704 17.278093984385566984 17.145543678651364417 15.234279866013061167 22.967586639178726671 18.106359613953173948 17.557560286707175834 20.751358065364996719 18.227636661078307156 15.477915968056485951 20.650168638794660581 -999 -999 -999 -999 -999 -999 -999 -999 -999 -999 -999 -999 -999 -999 -999 -999 -999 -999 -999 -999 -999 -999 -999 -999
-999 -999 -999 -999 -999 -999 -999 -999 -999 -999 -999 -999 -999 -999 -999 -999 -999 -999 -999 -999 -999 -999 -999 -999 4.6053360205882833966 4.7552681146731670125 5.6887709583069527852 7.7246925509502721852 7.1319522274970159614 7.1685486106710039067 7.1008303213363852535 5.3794041253243065626 4.9113145904704360589 4.8482363566489965478 4.921622502061381077 5.0209725392061388405 4.9906933900000307602 4.8988504835470392251 5.0581688405134102027 5.0965043537056340384 5.0044297428151880425 4.9737794008858111638 5.0337735919498012294 5.2226087537996273014 5.912301278347810829 7.4417570130108812165 7.2538407817703776104 7.6455721421701134943 8.6419974487023463183 7.1123282900863857847 6.377734139491964882 6.5462950614566590701 6.4459101644060412539 6.3943320935270051564 7.1818404322852007482 11.355668144029733568 16.055476559059517427 20.729464194302973823 21.537332999223060881 16.098820838760666163 9.8891291894695907416 8.0479966940784475327 7.9805103568200861375 8.5688629308963921716 8.4866162149920274516 8.3903107608984832666 7.9560473277261145597 7.4719534798278370857 6.992786909221162972 8.4461027530802628149 22.329453183973139829 23.878467434191090746 16.360010346926358693 8.9861673192253110898 6.3163800928960069925 5.8705751551355440654 5.8186256150996573666 7.641619703473484293 9.6403997022711713782 8.7839621202804814004 7.6483756453238562756 7.442771852054692161 7.4637475889708833066 7.9598855853665853033 15.112724009341855336 10.134776226040608904 10.607603064680509064 11.380273210543602858 12.858184888699003778 9.9421495556888217493 10.852914754652797313 9.7646314768879598489 11.628411394152230685 10.41719404664755011 13.542480248368359952 10.813796786222177104 11.330098935787040304 10.559195552162302434 10.616488017848856984 13.116288788512822094 11.395310208931544338 11.099583605896821581 11.260643342199212924 14.851911532938911975 11.829262722836318744 11.029011166001550848 13.365989532254252126 10.288774872918150294 10.474155397705843029 10.797122368833694139 12.184478836060304019 15.416791315858176858 14.650109139401203961 12.640345045158912995 11.303660157991695101 11.170587271470152402 12.973182536085820615 15.567801898939638505 13.068370593254364564 14.60825572504635339 12.724828947429893233 13.245357452694854317 13.831915696053004083 14.37427878880116161 14.034386901236926448 14.827983288453477684 13.669728470192652026 16.38099684108033216 14.66107758044119791 15.233781668487349492 16.167023582714605823 13.72186823448818771 13.936301744180013884 13.318151463039459514 14.259040848190736028 13.269075830290939066 15.969238514263054185 17.581867201770535303 13.528346659169814714 12.994317214259343274 13.143240007449854545 15.700853288761722482 14.488987054174970126 14.84605905165208739 13.499334784812454302 14.858822968589104008 15.53659571947689777 15.390984561713619172 15.479672746113923409 14.131660285294385559 13.942157037391501362 16.892382161321599199 15.563911432298096926 16.905174302446514645 16.39329954653883803 17.075334575804863135 15.640255178587883833 18.60726048306696967 16.588055491813538112 17.895101238751017547 19.442531381266299206 18.083547949484977124 15.302303277635871837 15.338852181542678821 17.798167608977326637 18.36515244086710652 15.486975517089989651 18.882952170942580494 -999 -999 -999 -999 -999 -999 -999 -999 -999 -999 -999 -999 -999 -999 -999 -999 -999 -999 -999 -999 -999 -999 -999 -999
-999 -999 -999 -999 -999 -999 -999 -999 -999 -999 -999 -999 -999 -999 -999 -999 -999 -999 -999 -999 -999 -999 -999 -999 4.5257026517353677875 4.6550304257700831911 4.7247716308547653696 5.9791960403800308299 6.396357440702550079 7.3212148673117010134 5.4792627126682411642 4.8192327032065369607 5.0155260537471031412 4.9151825752465345687 4.7890953296915137472 5.0812253028243672404 4.8431221533353348008 4.910982302521204268 4.9241862717695212837 4.8602166632665912971 4.975418596375285496 4.9624293584041732075 5.2771989097851657036 6.9410973551109362845 7.5585078338534481546 7.4998409271362715955 7.4021081355507183375 6.7165610928195480511 6.5835951423437242269 6.3154812487942804111 6.568276297268393904 6.2059045379439385925 6.5454944457814328018 6.2817885898520424703 7.2075538130964913464 11.918904913201807005 19.261100895627706109 24.673355598516668152 24.997554301178453784 20.455597061189109809 15.9338003777013828 10.72318698366381895 8.4285663169577897946 8.4009603845309381853 8.2451942753241844741 8.105973947636419652 9.2309094250301306772 8.3559508782521785264 7.0693719921011375362 7.7540643026471167687 18.409614634847148551 27.170893666637223163 27.135313135370942916 13.448246922186125829 7.0848966790641867419 5.9730273010400702915 5.7266949432202016723 6.65187778749537717 10.972403504002768315 9.2339540235913393218 7.7817250365609904605 7.3939376006846604383 7.4187477226356524085 7.6771302027237693366 13.29307752615881455 12.45206204359405433 9.8616941460564095934 12.587575690746175994 12.351301661928838271 12.611173130975478429 18.38495239491026112 10.415881303150648307 9.7375085984677767215 10.025144096463026955 10.873023992195271603 10.666162059949284568 13.081402634879461644 10.565952969854938814 10.812087324458504511 11.058744539396448303 15.85340957593874478 13.280555695239819158 11.051550452982443318 14.318671471639643045 11.70138719972289465 17.081840239335598142 11.749656052957893948 10.454751066756374556 12.752203769870277483 11.854706122233466203 13.13409530278250692 14.268122232312538955 11.915179377451195819 13.89914020753495727 14.104358814465742356 11.476046690834307284 11.51491476850078044 11.739657643882987159 12.350812256887399698 15.038563963523788658 12.213286806672764229 15.941840873994422623 15.725453927635671292 18.904071122374940472 15.857193539674328875 14.428346224428892697 12.856874890985420024 12.986246300201013781 13.435818030547295621 15.915606167755425915 13.025667385334047665 12.794476578720409776 15.141830629841612321 14.617030219022833393 13.108212678297213927 13.501797506831131557 15.681979482754297095 13.22487239896546285 13.160971533206922146 13.056800713285243276 13.169818416948407602 14.174947764182810772 14.226285538139780584 14.588877152764730738 15.323238806362425635 15.903019454120103759 13.656815096869722836 13.359742327102155812 13.51097058779912885 13.974580933674733529 16.493879136300513721 14.993239623503379576 14.893914637685369939 16.215033368176637651 17.620474626468318746 14.852561431088048494 15.326758093399771354 16.145796350027620036 16.486936305812129433 15.020556841271108794 15.642402996956304762 17.330062885325720146 18.561087300427811186 15.400681486140925358 17.809040964334720059 15.439236009747792977 15.850103327037700751 16.390718644990869279 -999 -999 -999 -999 -999 -999 -999 -999 -999 -999 -999 -999 -999 -999 -999 -999 -999 -999 -999 -999 -999 -999 -999 -999
-999 -999 -999 -999 -999 -999 -999 -999 -999 -999 -999 -999 -999 -999 -999 -999 -999 -999 -999 -999 -999 -999 -999 -999 4.3435718741243336538 4.3802064255069517174 4.6133956643979683321 4.6922160719922185734 5.0040264926063029449 9.629665843713310025 5.845626301143568071 4.9353415331146459621 4.8322092817696837841 4.9577642238236832029 4.8946380908708375657 4.8682633797812382426 5.0856334983582129894 4.8294339991664330114 4.8293135113017564564 4.917419341226578311 4.9632555499529296128 5.340450035060678502 6.2645657234201568286 7.5188251538878896341 7.7562657448943568284 7.2979532265907813837 7.1523149574857400879 6.4945059134914080445 6.1798292741465097322 6.6008023551982732968 6.3447997735060726043 6.1922754715953098881 6.6802416350951361323 6.9123467406494105703 8.1564532013947328437 13.493652122460781939 19.793036973324536376 26.132360086191084747 28.132717434717722682 24.81518236792967258 20.405587842533943643 16.998993633282587723 11.966655737771974444 9.7477779497246395124 8.1825273524699202454 8.5031589849874080755 8.2147095970156307487 7.6502491987668346241 7.5557179431745655762 7.1144188937773282788 8.597651062786029641 11.082518862712424479 22.856576566374045001 15.662173799587616685 10.429472220813927663 8.5741355683027755674 6.0180020908654761058 5.7924405384282335874 9.5036978494258850247 10.671696089752746417 7.8329159104683485637 7.4599053606638845437 7.2593073450648057943 7.3590906801472453225 8.8647023302274998713 15.184864593715353465 10.318372345179405158 12.717998746182251679 10.787102330335203604 10.386668145382564887 17.878946688426065492 14.69250709732320459 9.7343625446833961234 9.6279741013243143044 9.9948588437048755395 10.644515197174127863 12.950017785134198434 13.806276385268777318 12.427470290784629725 11.336267891759883142 12.897074227648182898 13.542353192863256339 13.268020744262928545 11.203820696258018685 10.983584034669886975 11.225215788735473765 10.608814727442522852 12.059037732354028094 11.462337032689813299 15.773771212968384248 16.417923762429555978 14.846849836936335976 13.100769904103637842 13.37453441168430146 12.543848708199677233 11.82878768400149383 11.884097839885679804 11.510133076226855664 12.457168723123603016 20.170814007750571761 19.45294075235764808 12.953799801767100774 12.787818055902379299 16.693593065613011817 15.779693357208440574 16.179968354178772216 13.224742388502299661 15.136635624731960448 14.641159245088662288 18.302773407059461874 14.657825999535065264 12.798461577646575549 14.671954778516045792 13.812425766627924872 13.225677776804115382 12.742288054089232929 12.938439938914388705 13.120937543774129352 13.112971661522761835 13.187564972087878701 16.683456313969003304 16.297035827334092062 14.089298630938962731 15.490489618652263815 17.260637567967030748 16.255515945628804531 16.856700248415858567 14.379569781883436264 13.404010078498270531 14.434515387036034539 17.736324828825644317 14.539626638048407159 15.095414101463964229 21.865530178486256574 23.436506196262840263 20.202048691241159872 15.863082232949341943 17.473644429082430207 15.910380094395300432 15.635887011033075211 17.355761128689437101 16.992728250577236793 18.987699354950301256 19.598442972600508938 18.241689688458510687 16.859803354991051094 18.165070736200675583 15.766218325175632486 -999 -999 -999 -999 -999 -999 -999 -999 -999 -999 -999 -999 -999 -999 -999 -999 -999 -999 -999 -999 -999 -999 -999 -999
-999 -999 -999 -999 -999 -999 -999 -999 -999 -999 -999 -999 -999 -999 -999 -999 -999 -999 -999 -999 -999 -999 -999 -999 4.265805118246639438 4.4483068265358589599 4.5688585029789932079 4.7006072222314507769 4.8472163457680919052 5.3568978488731708865 5.1855192251374742085 4.8877544520935689576 5.5159860862513356849 5.1860381940166240256 4.8154709223357983205 4.7978169241673773726 4.9168960915660511191 4.7773378795994831947 4.7945184950017569747 4.760928052309561842 5.0790534478581692568 5.1867497845346646201 5.1479075984438651403 6.6555255414650495993 5.7630136220366789956 5.865032401704797671 6.0199344684505398106 6.7156702504061742687 6.683297893529101863 7.1184266007109719965 9.7263661150362299423 6.7845195328491945119 7.3111983175067605245 8.6414477873382598005 12.395518301546770701 17.001433697333606432 22.572966030775987178 28.546263311084629777 29.818099127684714489 28.935025585331441533 25.302587169317867222 20.657469164909990411 15.090392026883829857 12.013113381333704766 9.9038082781707768021 8.9241686335695060706 8.4708568569860727138 7.6601793921372296481 8.5315863343685744979 7.1496471713503479961 7.2815326138286673441 10.653193450655948027 25.946112440259863519 22.689441919128292113 12.765671793376091259 11.163720239100086928 6.2538968525371094742 5.7604942739735305324 7.2836819786198168103 12.995261268033871715 8.0820450423570484588 7.5872744255082187337 7.2836203988329142334 7.6398280831900358123 10.083075920716954244 11.588117331678430943 10.610952986260022257 10.58545199779857704 10.163957513768702157 12.486895712112866974 14.673041389226394671 11.134603514499836763 9.5721134746062475074 9.568941698527112294 9.7496208208714740806 12.497842977104225426 12.563693142918502588 13.98562953659974184 11.223967228213385994 11.03849564841944364 10.975607084668135727 13.178866073066021869 11.23740788621151232 11.170822902605140214 14.474086059343674648 10.728153639546951226 10.285363395518713148 12.837789302593591856 14.999747185300821073 11.613083743681031024 13.053409369271401275 13.337371633543263272 14.549819509244684923 13.204866874109399077 13.790056844273474113 15.492072860830850445 13.211961036592658303 12.011832260757557833 11.803094578739241172 17.791651701290145837 17.413955526463968937 17.629714943264691129 16.274588059199022183 19.217242834813475838 12.612191030299026551 14.321657638246563238 13.317297734946022203 13.286441984006138739 13.644782944922290824 19.116545739925179248 16.658653904015913838 12.832193776341313196 13.897871702546163775 15.335504353139942424 13.366687970156585052 13.200588870704265787 13.202358161382722557 13.19081294224640466 13.201078738184570227 13.47983571335551467 15.85208597507073236 17.619971837261019232 16.127073117355330112 14.23743592483245024 15.694376786156604808 13.813551184287426565 16.480625082372569068 15.285274832712195447 14.260537278629003666 15.652060407723253022 15.850864008666368576 16.452802268475139158 15.406486045848293287 21.962166075780448438 23.425081411981881985 14.727645416761601993 16.26999642274283886 19.042114807457103609 16.211386692424586187 18.322522133685250623 16.037531308020067655 17.136275100440148123 15.731555689247626262 17.730752194847458014 18.259755256211313679 18.447594053400319325 18.499487052413993382 15.873241790077493363 -999 -999 -999 -999 -999 -999 -999 -999 -999 -999 -999 -999 -999 -999 -999 -999 -999 -999 -999 -999 -999 -999 -999 -999
-999 -999 -999 -999 -999 -999 -999 -999 -999 -999 -999 -999 -999 -999 -999 -999 -999 -999 -999 -999 -999 -999 -999 -999 4.0823338875973664841 4.2883279895347996558 4.4261858049125608616 4.6110014821800477947 4.6997530611246691734 4.7407423221261737467 5.0194689130396925592 5.0290153164210691372 11.102389822381429241 5.0062586527311259132 4.732227624068488403 4.726947153856969841 4.7718690188717669542 5.055228295318198839 4.7402992893406556973 4.80932578653698517 5.0715878786084536145 5.2937742120256707778 5.3211655552912153766 5.4393593267421085358 5.5753111625044526889 6.0268329079454900921 6.6253798885897170479 7.006072121980483125 10.176506945291363238 10.546179648753929214 12.812666501550195264 8.036059372599003936 10.990526601046525457 14.225709253512725638 17.86634594507964735 21.908400068183073728 26.45679659084457569 31.358689371782467958 31.592669918364908455 30.531088739905374752 28.221100571632465659 23.762214505615929738 20.095910428883705379 15.012525514768308099 13.328087497099925685 11.10883167928111348 6.9544536619933001731 7.5426923708918591771 9.5675510634138039023 7.7890103649873152492 7.5311091469771600515 8.9068735111296710727 16.7126317798681292 27.003789026610451884 23.331140372934576988 9.7471342158453921911 6.9204440662740509538 5.7957359462431607966 6.8782587314203151863 14.281772348309125675 8.3986919153815424721 7.7605202543077060895 7.5815779379290848539 7.8554174606585149832 11.255885854769605459 10.193879194514096298 12.17795617392846097 10.813666704537984842 11.445487963597583914 9.8583184636151219848 9.6318322015875761366 9.7588399719960197132 11.478467232217473892 10.559570616219712491 9.7954822476447507285 9.7423479154223020515 11.227578147895151517 11.063732587368898308 15.078501587923819116 10.916279473222850527 11.720127330817462052 13.096885101518440209 12.387831936484207773 11.350793624230639978 14.62928765902650774 11.680882350491080146 10.129698526384437685 11.336876367484780559 14.885254929419353687 13.650425027318169313 11.798137957305069534 12.160411969254944609 12.426735990678814403 13.721632758644791039 14.761683525135543604 17.783326076955368933 13.358482491452527086 11.744413228099123359 12.02851466191469143 12.215743719227367237 12.497133806700537306 12.844478301432367573 15.310813795856628161 18.24565583052160278 12.994299925389123374 13.603066583967294179 12.965360983284069718 13.407290679506983722 12.656724591857871687 17.696770443964290109 14.644382154140062724 15.603657699861619435 13.821354415374093705 15.039430902977615645 13.42917648843329026 19.627927205052731807 15.562592437350785346 13.508824290703394411 13.395519383849265438 13.362535718231672632 15.21820958258166101 16.041252389233289222 14.291729264879489136 15.193193518164765266 13.896129796610377838 13.469544399179168792 17.181971919848688657 14.734676224133471223 15.535175832964476683 16.123692552127092625 14.136795180637314218 15.095895245614819657 17.635838878406371322 21.605802799279537396 23.226228847190512283 15.759713298460070519 18.009830515862876865 17.996483487302015192 16.828255135722468339 15.491194336629533268 16.080445280810749864 18.495360913962329619 15.449032051967217072 15.82589414441557274 18.874903393756717662 15.427130155302412717 15.590041390949625821 16.660916883863038152 -999 -999 -999 -999 -999 -999 -999 -999 -999 -999 -999 -999 -999 -999 -999 -999 -999 -999 -999 -999 -999 -999 -999 -999
-999 -999 -999 -999 -999 -999 -999 -999 -999 -999 -999 -999 -999 -999 -999 -999 -999 -999 -999 -999 -999 -999 -999 -999 4.065044426037842662 4.1397248492362122008 4.3588496545680639471 4.4936104315578546675 4.5291327037450024307 4.6334168994985338585 4.834836306161850672 4.6380155723832965364 5.0336206256126487801 5.1196045815379678245 4.57393192179460506 4.5602398017002174768 4.6322716329378454958 5.1566654466528483169 5.0271710164844787272 4.9694006470296923084 5.0294374104297334682 5.2598457074345281725 5.4291328983534263841 5.2361324850855650581 6.2224724070348251814 7.5218954168501888091 7.6943334295561909286 6.9919395075703993925 13.944377080293170579 12.515458275763633011 12.807291432918280094 11.908838606640475888 17.145646763349535746 19.662842204371166588 23.457807340447732969 26.009341609152979657 28.410565624861384038 30.553028558753482002 31.199053189755581172 30.78809257684686429 28.958958868977678236 25.74557548699211651 21.240279673141607475 17.691182494045548879 15.800687666852077484 12.770836327121287468 9.5148637923067447275 6.3110736572941679157 11.605910970314894826 9.2847050991375397189 8.7575376028663356465 8.4465086073912694076 9.0273318182288946332 14.064041166015281092 27.319556237119773101 13.857988716571586707 7.1595115492999052975 5.9810997824768863396 7.0811660658856698802 16.389012074781760475 8.1253338928246368056 7.9534857700852814588 7.9102791228977151761 7.8400806343059690207 9.1853641300688408933 13.701704466504359914 11.307459904618978541 10.711069416279375588 12.629017765831909159 10.36226883209071481 9.4044112233252139532 10.05464913887029077 12.614230078100636234 10.452772012157877768 10.105719776645944563 11.137523928943284801 9.7854293850492641837 10.308105560814624369 9.936119044023360658 14.089481269580321765 12.038775423849902069 10.945749285456685129 12.486817070797929574 12.185551697445712094 11.04840713978753719 13.719786424214268195 12.211464573874469153 12.677658992542056637 16.385715671013816319 12.23012729625847328 11.035648932478478557 12.823724254470100448 11.312989028655135115 13.886293740467568369 11.895383911221603768 11.847831513383873414 11.433940169057532188 11.705816078479308828 12.160290386394839501 12.454519060470108371 14.28447535992402706 16.553318135671297284 13.252576464214886443 20.374079366803233171 16.659127146971133726 14.82140697279889352 12.910533480931455586 16.563999407194554436 16.280527389651805237 13.957775082135301048 13.773992790740678061 16.165071776418425742 13.643036908294929432 15.779634331989901952 13.660003076155321722 18.890608801142313666 17.341320589975218525 16.810025472382346123 13.657338328893391832 13.899962378419862929 18.254026269824368711 13.429610716767363954 15.169792155342646467 13.993680193511501386 16.492588431643039115 14.661846782920997967 14.432284218759857453 14.488689936348476905 16.050495082955279713 16.11578566425770731 18.887791534735853816 16.262098979157716627 18.202103147474637979 15.353407485068345295 15.114208507744184118 15.225615502035068971 17.221213226913871353 14.946445766524053766 17.521585936721667309 15.388668621171632367 15.414806276386205042 16.028241725454712707 15.707909262251664728 15.791172053141744769 17.756739251685111469 15.314730078831944482 16.829835376112601608 15.938715974678153486 -999 -999 -999 -999 -999 -999 -999 -999 -999 -999 -999 -999 -999 -999 -999 -999 -999 -999 -999 -999 -999 -999 -999 -999
-999 -999 -999 -999 -999 -999 -999 -999 -999 -999 -999 -999 -999 -999 -999 -999 -999 -999 -999 -999 -999 -999 -999 -999 4.2282051426460371957 4.4032278286817874147 4.6949777189559167567 4.8175635987485643241 4.9363883066165268332 4.974385037442923263 5.525031807948650453 5.5708391338873601839 12.074769358712611478 14.159137193180969305 5.761561424167424228 4.8246567256338392937 4.8041911948141757804 4.966506395012036279 5.1359994303154525852 5.0732441470226703473 5.1373398542880472917 5.49666123290923192 6.3500701885099246624 6.4115222570729004659 13.565699819496877865 7.9990504623787259675 9.0031665514376548742 13.097944901140166962 13.311656466541794686 13.103244553465971833 14.62247658189998134 17.267546744622990218 21.609573528668590825 24.950095689154657919 24.595634368686972948 25.555445549349233403 27.043297341542249512 27.793983129122693754 29.797745356419820695 30.048071053156611754 28.933513286194738612 26.450004288670360353 23.137010709980227574 20.882899508375764697 18.488872425237197206 14.810963775561726052 11.185804872995978698 7.7895964442021927709 10.01196432860234431 10.899571688726076957 11.558407957446755532 10.385127998513512537 9.5984151596458762157 22.241884737209112188 28.106054888162827154 20.458026982889435885 11.240666731967065672 6.1160914997521800274 6.5011900051002005085 16.200213995265073663 8.7601899853163249787 7.9895275815560005128 8.0609763055927370345 8.4277872829021323042 10.629960956144568485 9.9402130900687772908 9.5810598415032881547 12.043817697464511696 10.004959706342377856 9.381462032300902365 9.7859739764199424883 12.822252428346576636 10.346443267909730679 10.22061538171934103 13.216496359808040495 10.722296195245085926 10.073507042526843591 9.8486992107361679416 9.8180531215018156388 10.250890069795691062 12.019865019633554581 13.568044572526963165 10.900345049196252134 11.630407681222104443 12.053029743433027576 12.969245435017846546 15.904652050595883495 14.020277169321211375 16.474040733023304739 15.191140428788967753 11.476836539572618179 11.156444407533195218 12.407704709548761812 11.664574925610359912 14.178083732395164063 13.960374702097146482 11.481634697960631186 11.673894126756268363 13.253192521739613596 12.911471617564059144 12.662975314496653922 12.579653521314428488 16.78798436144082018 15.021582556489061488 14.134899666940910379 14.695402612294497402 14.307836309933652075 13.16056998607261086 13.735160253318364099 19.357173595050358728 20.805668378523709094 15.277994883281586169 16.161210555579678783 15.307142880075126357 13.210058419286465181 13.928877861855998077 15.486904648483625024 13.515590394261442597 13.547518053407360483 14.261327951380394552 18.618600644948369194 15.396726233031493791 15.849971125366650426 16.309713471328198153 16.537224515503996969 15.550541453474373554 17.690190025670929685 14.842306927946415485 16.474873669399279663 16.748727149000949055 16.811032639518487031 15.84036686890298995 17.338601154119618997 15.475364955844101544 18.604530881798709174 16.017792162132284517 17.283185654451262536 18.074414605998029515 15.60594198438862712 16.971952615721107804 17.437286221730065705 19.508375510929912622 15.722914167039089506 18.505665836442158678 16.387292748948972587 15.540172664879307263 18.963336412868915914 17.708369443722411063 -999 -999 -999 -999 -999 -999 -999 -999 -999 -999 -999 -999 -999 -999 -999 -999 -999 -999 -999 -999 -999 -999 -999 -999
-999 -999 -999 -999 -999 -999 -999 -999 -999 -999 -999 -999 -999 -999 -999 -999 -999 -999 -999 -999 -999 -999 -999 -999 4.4522035166859437183 5.0730710997935108963 5.3372318705678338802 5.6977128780057499924 6.2156412205539224303 6.6868438165999890543 8.0191632793244398414 5.3158153390286120299 8.9894907206008323186 11.700702642975391754 10.281293399738618888 6.7135609925834822675 5.4603328362996537138 5.5960319307475927531 5.1019998531087509264 5.2648848317430223531 5.4381637758621561574 7.1460975920694114194 6.8664516416022403078 10.417421001584697748 7.7996906393269114233 11.727138606680139077 13.273256535566384073 16.395001337337010483 17.730727086715717178 19.415720256352560824 21.835269246786214836 23.249492937755110944 24.680050139598403547 24.78875916881261432 26.059071095906077176 20.091767699959721227 23.967013273625344283 25.762726313121078192 27.269356572313874665 27.651940668788018485 29.248387294609784703 26.237681233502783584 25.148206221472513278 21.918381658567959391 19.721551799244434022 17.731150517199690597 11.176882752642086416 7.8051441059888260199 11.218380960127646517 11.749652103207665732 12.618907436887679907 11.200009381287902244 10.401420773983712564 9.47844250901664509 24.096146543256732997 19.049748211184574842 12.150389347786834549 6.3590709325072758418 6.5907343919664347354 12.373137244301233295 8.6073149239853652404 8.0713119460024866925 8.2956540494822537113 8.7550404022798513637 13.644549111579442169 10.166543191949013902 14.491105907925229346 9.8925458033002033886 11.542385186509505957 9.5119002907869791841 9.4965942454727265698 10.075692053265846937 10.526086941333137048 12.040793986663908655 11.656382608309881377 10.239320578161546393 10.399905404094836214 11.209851071627490171 9.7961073849546487224 9.895388101559158045 12.511990045175584996 12.143279707746268414 10.878002397516338462 10.826112161066673067 11.08324936430360097 13.325844788149012743 12.700786077789169681 14.28218499117681084 23.313767607436332696 12.247178835353629722 13.034185046006262709 11.001566461153823084 10.963194857765159895 12.090607929692255951 11.855597431865675162 12.007978655304324178 14.412757329774503745 13.323456063160456608 14.714579236534161666 17.209819550561629597 13.939271649619506377 13.088745836672252665 13.117791756715391216 14.000318163659130732 14.280746865126207723 13.627106682812808458 15.515120205207553639 13.130845083463695389 13.159123385652982563 13.723694097370382039 15.499160469203935975 18.424473954470361292 13.366683969369423934 13.53935788955740982 13.157397132467561818 13.206823897812785873 13.255252130069026251 13.337934220228754967 14.673921640363085217 13.938295320112901621 18.47373871224236197 13.769043811479690476 16.325979032013307801 16.13400630891905152 14.281996949228320304 16.851008208112304487 14.543977615621511035 14.488470246332386893 17.876901011513869122 15.03438014586047089 21.15189399793224112 17.624585836911659698 15.341685914568982341 15.007689471783347557 15.808250618120647246 17.650126175328168188 15.441968664035996994 18.974184862692140996 16.085932628797458221 18.117154020429577344 17.920682532581217572 17.550838539087308732 16.129702357630385734 19.274030941697212427 18.296473721987045025 15.776430227864626232 15.821759991896207964 16.158477680358423356 -999 -999 -999 -999 -999 -999 -999 -999 -999 -999 -999 -999 -999 -999 -999 -999 -999 -999 -999 -999 -999 -999 -999 -999
-999 -999 -999 -999 -999 -999 -999 -999 -999 -999 -999 -999 -999 -999 -999 -999 -999 -999 -999 -999 -999 -999 -999 -999 4.7521790051541197286 11.205203564536564187 6.885244295233353462 7.2718779667602655437 7.5668698956295372682 7.6543933006665811902 7.1470459314374528148 5.5411826853834931228 7.8729674991284737118 7.1220157492828803925 9.1035124463358840785 10.465441736758155145 8.3963220372400044766 6.277203951551553196 5.926469161804043928 5.3123568578019879638 6.4525427730620004141 7.1123859257938635281 9.339024955766879188 8.0762377444040325258 11.51678441473790393 13.346985992534284193 18.124265163601972262 22.560701594840036677 24.236942941498849535 26.319768534621417189 26.516863861282615744 25.129672511365068743 23.03814845733977279 20.513684495230087634 19.545245245563734215 18.46803715878674268 19.112397228086926759 21.114795067987429888 25.33521383220363532 24.759583241363134931 27.718538263486536266 24.883970391689544499 22.33283066572747444 21.63578640037118106 16.704327222332690184 15.07642884365987257 9.4024941815683060753 8.7528595614744340025 11.392595067321124702 12.477048008129740353 12.1708579193043267 10.766758236733492637 9.3754468544908480254 8.5471351523942562523 10.05079826651280861 26.823425234773576875 12.781838827368478206 6.487535040890058724 5.7411906712036921974 11.052797490454910445 8.9297036892534240593 9.8534731863092552828 14.025821569350958029 12.953272029339006011 15.785329487146267269 10.094618547906193839 11.196138427865632181 9.2569285401735896812 9.0167742861069370974 9.1712830376062903781 9.5859236206230811206 12.635002859550384713 11.876688667503605856 12.338900490275815258 10.585942239708611368 11.668868676592456524 13.174186997280457945 11.883914904931154766 10.231102343095729523 9.7307810235592615555 10.018095452497961517 11.435184412526920639 14.284975363210360655 12.577924718275285798 10.901631775206412911 11.249283898507048463 18.402612086752899501 18.552064008841011145 18.746873282226456325 16.607807659929683552 15.636063378095030885 12.901889294241541961 11.970235459907872411 11.501334133373001478 13.181217165742850739 11.738875902878607604 12.124723376873165037 12.554342560976627041 15.502295011419020554 15.174471806680925212 14.3510670112739529 12.903721740950198082 12.981519388962130535 13.200803727123847864 13.320248524815857749 13.313406703330942449 13.353214980868239437 13.258732892836842865 13.162844534691062748 13.229542406111633568 13.416140648339375474 13.469047374564382835 13.368752056649544357 13.390675821052543171 13.237318132119744618 13.283866768114743095 13.366613620294652165 13.394288944814467968 13.56425499942265489 13.566586035852484571 13.626610516180090116 13.669064626113174299 15.678569087785847458 14.542490631145845725 14.569204702585416555 16.138145278502726399 14.387607652712713247 14.371221518270695938 18.06774928422348836 14.632845022553471637 18.680249546291886276 15.217357723772963141 18.65226381804598077 14.731387611957805106 14.778377618936415772 15.323894927900665763 17.98687396486307577 22.713949255067774402 19.71296514889575846 17.384094634437712301 17.971372406051017379 17.99639377740232149 17.644712857837649977 19.702405311325094317 18.993071510524856649 17.904906886538782373 17.273470120821723839 16.241266507185677881 -999 -999 -999 -999 -999 -999 -999 -999 -999 -999 -999 -999 -999 -999 -999 -999 -999 -999 -999 -999 -999 -999 -999 -999
-999 -999 -999 -999 -999 -999 -999 -999 -999 -999 -999 -999 -999 -999 -999 -999 -999 -999 -999 -999 -999 -999 -999 -999 4.3989006864914843575 4.703703842560074122 5.6557498494023219493 7.1996039119852630606 7.4884566202884261799 6.4288585966057265608 6.0137491821349966514 5.9883201733995843341 7.256758254240799566 7.8222120221033533127 9.3736830466469527323 10.959347039654096179 11.911501079323851826 11.176486238172312682 5.9416076095910694832 7.2298959028409042205 6.8247312863823834661 13.179925061574760292 13.495509184716190987 10.117067783464738895 12.770789481089893869 14.441928527561728401 19.597920263166336952 24.223402381104754966 27.556104616168966004 29.662926055306783724 29.501704207575848216 28.576482461923326639 25.443121809134421341 24.883634739974468175 20.61935714976875289 20.240647813978590364 21.052354193785280501 20.891088229545768939 20.079544381745755288 23.179391645654430221 24.671932393034701647 23.587033192334899923 23.145998650134863794 20.001157520457006456 16.251481817085856818 13.926464503649720328 9.2219782033046318048 10.511713746526989866 12.2364914136792855 12.21502765346608399 11.936052578421096015 10.415467363930476452 8.6084148261220274634 8.4715024798827815999 10.254847168838207239 11.427461110213370077 11.8441362383371942 6.7145007370442337802 5.8471492983137256516 7.9515172872309500818 17.894175945636305869 22.81822752138208088 16.495711751920815402 22.610605455612262205 9.5304759411442709904 9.9173335144619176873 9.4667239953345685421 9.2104700006655502165 9.4469615734364822401 9.3227022148583049699 11.973225191432426584 10.045320920805089315 9.9060456024141334552 11.0240880997963 10.069881234304940421 11.747590050949796137 10.500725152838827015 11.168555685999043803 11.471158765551793479 9.7849616818266724749 12.19189810957966813 12.796885394104565492 11.033440051802157811 10.768682461969310893 10.738272446046824626 10.846982677021459907 11.54603315384552964 11.551553439409111945 11.768001913288713922 11.634519996533731145 10.584419034684005467 9.9453060456548598722 10.13697080805140871 10.263236601093730371 10.333932383625251461 10.714108147592268594 11.971915786988347463 11.070533779299243093 13.961251304184827404 17.447094381789245432 16.689979741891558973 14.49992326330344028 13.31943384046276968 14.515176692620428867 14.688503020568090207 13.579521682665792071 13.512383894031634313 13.557107090392159776 13.185832843040969919 13.398429660229369986 17.699860583786332313 17.657923021101009198 18.273194737204764948 14.032026992134008836 13.257943095890277974 15.412682008326221705 13.31887262348884704 13.484150632011017379 13.6365771809191898 13.427564620574640841 13.822754158622613474 13.653605956891102124 13.66051869162029142 14.27667368557104588 14.749330546590714519 25.567850641531212119 15.338572255929227239 14.031117779512529253 14.345893466306403496 14.594380650210593942 14.706492361089832599 14.687549420364858221 14.736695013000229437 14.791741417369104639 15.113941684273452637 14.865806691055004407 15.115964647089759509 15.337604515640705927 15.72236865732187816 22.405072271522751493 16.504728287379421658 19.163361170627069896 20.860675635153686613 19.921899671342519156 18.615200321716820042 18.806331987652505688 17.123598577532256115 17.776183929392203709 -999 -999 -999 -999 -999 -999 -999 -999 -999 -999 -999 -999 -999 -999 -999 -999 -999 -999 -999 -999 -999 -999 -999 -999
-999 -999 -999 -999 -999 -999 -999 -999 -999 -999 -999 -999 -999 -999 -999 -999 -999 -999 -999 -999 -999 -999 -999 -999 4.084736901621981886 4.0833767800427329675 4.231612202122732036 4.3798382513518623327 4.7038906852400224068 4.5148002961210824679 9.4661039637481909637 5.5047461153191150629 6.2450726004693448701 11.635429120203600206 6.4922147821176903193 6.4616457175119021983 6.1096421049232549905 6.1533003720824481775 6.2113228060107186224 10.345486728165379731 10.660400150434703903 13.189503960276221406 11.997781464553298747 11.761715539932207975 12.583945889400325768 14.839748829870522684 19.775817354300542661 23.681279553750712807 26.138631829527810169 29.300976870638798744 31.554016979996553971 30.554001167985237686 27.94456431134012675 26.161503168117455687 25.17522072293922264 25.182319913495778252 25.323663517160486691 23.92942696120790913 21.520233398958616533 19.402704592867600297 21.872463827307328188 20.457481203284853422 21.12699738972625596 19.191560511420608037 15.830723758582276872 11.048451651888461456 9.0206008773561148217 10.189171842215833053 13.4606515104062332 11.075293047062434226 10.925461843912835036 10.15018099630700199 8.4021002594830989096 8.5002653109416446142 16.515819275716985715 15.943337251461588977 10.376821675489686925 6.9789187576784703637 5.8947459836355520224 8.0794979052395365926 17.619887204503907441 25.182032177404920503 13.247334616944314689 9.7095732143061042052 12.918021276103530681 13.3437912647145005 12.914811047761244112 10.632669469937576778 16.175647564847835724 10.339619347705085062 12.17660585561557518 10.137293267422512244 11.613114061368282393 11.783912144649626441 12.742467802332964055 12.180253210973289058 13.49273818120961721 12.582616748233155235 10.938588692799370961 9.6804557053558113466 9.7044582545427893194 10.376446052860750058 12.932569393130103563 15.176247129683479997 11.432532669091658661 11.700177651791705102 14.213588591795238258 13.038150072741389707 11.685216415462351236 14.471827017280958216 14.883757383000506991 11.042538780702800594 10.836791445121079391 10.887816193430094103 11.162832288790514923 13.332448283330917249 12.120622365210518723 14.846046074437976969 17.038213368748373 19.096663375845501776 14.87509218793221244 12.26547657131495761 20.079033194291092457 23.866933698223878224 20.56395443451798144 16.803902266722516856 13.976962420500116835 15.450130542779168863 13.278998364375903307 13.794189458166254525 14.346398956965924043 14.139548276351261435 16.344101305853456552 15.370276127666191002 13.501730490842296817 13.638389812134205314 13.411051530021632416 13.377495816187504829 13.486738745299161835 13.442983295958056189 18.079983421212187267 18.503326603956153917 16.645895940460398776 19.349418295545827817 23.055581122439654962 26.615450031981108481 19.836358812440309407 14.238393826331272152 20.734714532638761852 20.681576567758241936 17.847863851083033637 17.403366361661216644 15.374087011197671515 17.143746532272739813 22.426330780699107237 15.616425712085673538 15.523251658398624642 17.129019395270965731 15.108609590983855142 15.584737911095169594 15.70793823045647386 16.333775608440021188 18.036382719598087476 22.730388507512415686 16.90999362194615685 19.199097285956579384 16.128098103353782022 15.988493314834393288 -999 -999 -999 -999 -999 -999 -999 -999 -999 -999 -999 -999 -999 -999 -999 -999 -999 -999 -999 -999 -999 -999 -999 -999
-999 -999 -999 -999 -999 -999 -999 -999 -999 -999 -999 -999 -999 -999 -999 -999 -999 -999 -999 -999 -999 -999 -999 -999 4.139609848884347798 4.0743533370804145832 4.0752153980799405986 3.9927701368122368031 4.1915787756059623703 4.2915739009004578719 5.8605793050858965287 5.1883999310913475611 6.760796488277803995 7.8598028805229782634 7.3630775169302404848 7.5896062488424540504 6.0463157240194922437 8.8906313122925197945 10.910495390902774204 10.576720364742392633 12.366812870185325934 14.698468239202997054 14.266386794516904502 14.219701656043362448 14.284673972179577461 15.127217908285025771 19.120713208415185846 23.038144218071003877 25.990067046953480911 27.538531283575462538 30.699134166545313462 31.943959273659572773 31.193006493341414398 30.16239897357386468 29.376067196315521102 28.886922981272373789 28.568902163801851657 26.78114568058917655 24.130257235119231041 20.765447661952912028 16.652472314675961229 17.14940502264199651 17.12844781773322822 16.288737622137926309 10.892044360528966962 9.6699304635519069961 8.5862115052173493268 9.9539336003785638951 10.161782458130241835 9.975931194004822089 10.279096389292755376 9.8834512651599712996 8.397328863915852537 8.5237811413520780945 13.185821351016242531 22.702765278579509101 8.7662446159777918098 7.1826972851394144115 6.0055172140208510356 9.0327761526900012257 12.058404000340221529 16.719266869033720724 9.6378520765550010907 8.5832716222571647791 11.361794875923942882 10.071036326040243125 9.6556858013288291431 10.353652956782955386 9.9997336836324066667 12.358927260317976504 11.742699794572697414 10.913970931285877697 9.8301557511154520341 10.273337114487036459 12.440101871233231634 12.771426131177896934 10.81388831309745413 12.111427815214359072 12.303135869290114712 10.243221940582648344 9.6151075114221686846 11.853063967646603416 12.622547731834300677 10.970028364588163328 12.035742370417263913 11.408920160194048421 11.867666844939265047 12.130666660143962332 11.36561803091512779 11.214242739885621702 14.84885419084780267 11.400222275071646649 11.360368041286742269 11.47503134993170093 11.463766400042347371 12.330886467778006121 15.167295081277080371 12.896436342675205111 13.027789093097586814 15.177266903287698341 17.828315664389478457 14.50303246761482967 19.797720354672613041 18.973887137661293423 17.801573568124815949 16.026842594927018126 15.139170939981985597 20.129332732258685468 14.97622310844558946 15.647864557298776234 16.88698424382836194 14.499672687887354527 16.54842310095420288 16.855270783400882806 15.338023035830120833 13.413525157650209252 13.258947057848811113 13.326503189427196361 13.18200818418705822 13.478936234820713125 14.807638399717655275 17.016921692527414933 24.37521352324931101 19.733841257935054614 25.263888869805260384 27.61389466635808887 26.276805687328284478 16.679863953556736789 25.303583878169511934 24.51934787892188794 24.03221259633531659 20.226799626016187972 18.327980071172358834 17.94749727306670195 18.441678597334128398 14.96528636543818358 16.24860197365720893 18.296360501537609622 17.847757716594063737 18.707962201302738237 15.140311368712318085 15.690109903136626457 15.953118683042008641 20.121341238630364501 22.984837602434357251 22.581500418610865211 16.812249617184054529 16.969596341864722433 -999 -999 -999 -999 -999 -999 -999 -999 -999 -999 -999 -999 -999 -999 -999 -999 -999 -999 -999 -999 -999 -999 -999 -999
-999 -999 -999 -999 -999 -999 -999 -999 -999 -999 -999 -999 -999 -999 -999 -999 -999 -999 -999 -999 -999 -999 -999 -999 3.9769573233959354397 4.1203041359502581287 4.0699186474605353325 4.3549710457244037443 4.8360802103025370968 4.3058527093574401334 4.6530658330221683627 6.6556898581320549368 10.373327680242462989 7.5443982285923700815 7.7088320841166408925 7.2479394494115458869 7.1879109934046052643 7.872385407427614723 8.1124866694096517961 8.6559749915913748453 13.770667917896288301 16.380200909229625239 15.835710305169900636 16.685325849124613029 16.384665251316118173 18.392309904714235103 20.413578127015625796 22.870399009382317956 26.353217133699967434 28.19513112103728858 29.556318913443231367 31.032543606493266708 31.400342559474495374 31.257265299008508919 30.475617826757204654 30.017789622645729253 29.984110552589900323 28.484808609378724498 25.187499701562433785 22.006658615259219403 18.812651380342170881 15.855110602760737137 13.001848532590177143 10.404486536193125801 8.8649746994215981033 9.8188454814589292141 8.9322032100852251091 8.8919875804997694502 10.072270073287358017 9.7607218552032097847 10.188764344201867829 9.5741634377788500387 8.7106421283838244563 8.8650290183591060611 19.416281423011668039 23.643921687156534972 11.544568597781953656 7.2589979129193329399 6.0646745695171775381 6.9787406710135329035 9.6179215008363794226 8.5918428394951185112 8.4267909476889180098 8.4353738392405208657 9.217157579952722557 15.138470334056338018 11.73462658827427596 11.29339782579902085 9.6382501795675654677 9.630089185243415173 11.184654733902421597 10.551298526971406133 10.11045863604439532 12.240888205616137441 11.694615859188548512 10.508358366453538935 10.468390223632548341 11.84812235048206297 12.730649628015935804 10.81350987173036593 9.8515842126153128078 10.481243529280158455 10.563806689464037447 13.566166352611688239 11.373897341907612812 11.23616200779742158 11.415215121721113078 11.170798851451190004 11.210631370564573928 11.297605557130674825 11.403896500715138274 13.928028129543395863 11.88762901614776446 11.788532679926086999 13.2392319368634368 11.969776506246974535 12.573270441114113183 12.676435221993635594 13.917428779227716262 17.001497044987161189 15.856972063699636522 17.999252346965231908 23.277907008859756388 15.465369667415457045 13.409719189406413165 13.929279273990767152 15.936161108713198686 16.241190478809595987 13.661733728884058792 14.935389754593145994 14.5963219727734419 14.895298535662837125 13.747537051127840968 17.792960371483736992 16.982990510584059507 13.418266981020526174 13.256182729570033629 13.257960318693449153 13.303191272393725342 13.523052513253364992 13.460968318163272883 13.806261490888696031 15.199305955915889399 23.658799673248157802 27.1598973819843863 24.744054510644556188 23.255854470829234515 14.441480424206227795 20.387991260299052954 21.57743053338326078 21.481174224276003315 17.659039975951156265 17.424359493192902448 14.414194766462300024 20.798761669198945867 17.848399232790210789 15.046387025232030865 19.015498768906859084 18.633615115509790883 16.546053415844486523 16.05701529754761836 15.492957571255404403 15.744967941404507172 16.394997981583038893 17.000193003008927661 16.61297695489678361 16.897185315684307483 18.28584917795300413 -999 -999 -999 -999 -999 -999 -999 -999 -999 -999 -999 -999 -999 -999 -999 -999 -999 -999 -999 -999 -999 -999 -999 -999
