ncols         192
nrows         47
xllcorner     1771145
yllcorner     5472194
cellsize      10.000000
NODATA_value  -9999.000000
10000000000.000	10000000000.000	10000000000.000	10000000000.000	10000000000.000	10000000000.000	10000000000.000	10000000000.000	10000000000.000	10000000000.000	10000000000.000	10000000000.000	10000000000.000	10000000000.000	10000000000.000	10000000000.000	10000000000.000	10000000000.000	10000000000.000	10000000000.000	10000000000.000	10000000000.000	10000000000.000	10000000000.000	3.975	3.923	3.906	3.939	4.001	4.122	4.809	6.886	6.504	7.002	7.932	10.152	13.045	14.699	15.324	14.766	15.266	16.182	15.921	19.832	21.643	23.722	25.403	26.044	28.218	31.821	35.278	37.571	37.806	36.396	34.607	33.357	32.424	30.809	28.969	27.585	25.299	22.891	20.191	14.359	10.330	11.318	11.454	10.504	9.249	9.991	10.960	10.389	10.050	8.076	10.645	19.105	11.058	8.846	7.583	11.503	26.174	29.081	10.130	8.545	8.892	13.290	12.033	10.058	9.621	9.735	10.444	10.492	17.067	12.770	10.474	12.792	11.619	10.292	11.330	9.795	9.559	10.343	12.062	11.287	12.710	10.739	10.344	10.421	10.601	10.725	11.662	14.577	11.397	11.703	13.432	11.430	11.541	12.183	14.880	12.902	14.082	15.247	17.693	13.146	13.621	13.665	15.847	13.599	13.006	13.988	14.763	14.374	15.660	22.342	20.576	16.382	16.110	18.216	16.562	13.466	13.390	13.303	13.377	17.957	26.558	27.851	22.645	20.414	22.522	24.774	23.973	19.606	14.590	14.445	14.736	15.168	14.901	15.171	15.016	17.183	17.176	16.414	16.561	15.793	15.746	17.989	25.342	22.107	10000000000.000	10000000000.000	10000000000.000	10000000000.000	10000000000.000	10000000000.000	10000000000.000	10000000000.000	10000000000.000	10000000000.000	10000000000.000	10000000000.000	10000000000.000	10000000000.000	10000000000.000	10000000000.000	10000000000.000	10000000000.000	10000000000.000	10000000000.000	10000000000.000	10000000000.000	10000000000.000	10000000000.000
10000000000.000	10000000000.000	10000000000.000	10000000000.000	10000000000.000	10000000000.000	10000000000.000	10000000000.000	10000000000.000	10000000000.000	10000000000.000	10000000000.000	10000000000.000	10000000000.000	10000000000.000	10000000000.000	10000000000.000	10000000000.000	10000000000.000	10000000000.000	10000000000.000	10000000000.000	10000000000.000	10000000000.000	3.897	3.918	3.977	3.919	3.911	5.026	5.801	6.790	8.160	7.286	7.062	12.732	13.679	16.842	18.414	17.623	16.049	15.991	15.574	18.166	22.683	24.794	25.920	27.332	29.718	33.469	36.407	37.756	37.208	35.625	34.692	32.930	31.147	29.973	27.944	26.792	24.389	22.213	19.677	15.228	10.132	10.551	11.367	11.802	10.379	9.648	10.926	10.513	9.510	17.300	12.768	9.272	13.616	7.808	7.168	13.124	25.288	22.331	9.575	8.751	10.382	19.230	13.498	9.645	12.081	9.430	10.058	10.441	16.529	11.231	11.054	12.479	10.995	11.280	11.426	9.455	10.264	14.138	10.378	13.571	11.164	10.625	10.243	10.255	10.484	10.682	10.986	13.550	14.202	13.261	11.820	11.819	11.719	12.069	12.280	16.509	14.804	15.758	14.941	13.192	13.549	18.585	16.752	14.846	12.848	13.062	13.506	13.488	14.078	17.755	15.790	22.795	21.908	17.109	16.055	13.792	13.729	13.590	13.620	15.132	25.485	27.753	27.271	21.198	20.576	27.914	29.076	16.660	14.258	15.355	14.404	14.587	15.608	17.739	15.447	16.532	17.988	17.836	16.422	15.751	16.585	18.083	22.440	22.785	10000000000.000	10000000000.000	10000000000.000	10000000000.000	10000000000.000	10000000000.000	10000000000.000	10000000000.000	10000000000.000	10000000000.000	10000000000.000	10000000000.000	10000000000.000	10000000000.000	10000000000.000	10000000000.000	10000000000.000	10000000000.000	10000000000.000	10000000000.000	10000000000.000	10000000000.000	10000000000.000	10000000000.000
10000000000.000	10000000000.000	10000000000.000	10000000000.000	10000000000.000	10000000000.000	10000000000.000	10000000000.000	10000000000.000	10000000000.000	10000000000.000	10000000000.000	10000000000.000	10000000000.000	10000000000.000	10000000000.000	10000000000.000	10000000000.000	10000000000.000	10000000000.000	10000000000.000	10000000000.000	10000000000.000	10000000000.000	4.030	3.928	3.952	3.971	4.029	8.115	8.096	10.050	7.161	6.252	7.120	11.864	12.103	16.755	19.116	20.106	19.307	17.407	18.608	20.741	21.542	24.278	26.669	28.132	31.470	34.822	36.879	36.527	35.621	33.240	30.773	29.995	28.954	26.480	26.243	24.116	22.119	20.256	17.581	12.367	9.794	10.596	11.416	12.081	11.300	10.589	8.842	11.009	10.144	20.073	16.267	9.314	11.219	6.453	7.231	10.734	12.925	9.860	8.892	9.042	11.059	23.291	11.032	11.116	13.077	12.706	15.749	16.966	12.282	14.777	11.028	11.178	9.697	10.056	10.061	9.324	9.537	10.845	12.102	12.028	11.692	12.605	10.310	10.389	10.409	10.583	10.690	10.892	11.102	11.703	11.414	14.360	15.037	11.861	12.174	14.109	13.753	15.932	16.073	15.327	17.705	13.941	17.108	13.119	12.846	13.503	13.955	13.953	13.732	13.949	13.825	20.180	21.675	15.505	19.932	21.758	21.522	18.747	21.946	23.594	25.676	27.490	27.850	26.636	24.082	27.755	17.376	22.380	14.176	14.239	14.981	14.674	14.648	16.364	17.755	17.771	16.903	15.633	15.530	15.631	16.152	19.644	18.200	26.101	10000000000.000	10000000000.000	10000000000.000	10000000000.000	10000000000.000	10000000000.000	10000000000.000	10000000000.000	10000000000.000	10000000000.000	10000000000.000	10000000000.000	10000000000.000	10000000000.000	10000000000.000	10000000000.000	10000000000.000	10000000000.000	10000000000.000	10000000000.000	10000000000.000	10000000000.000	10000000000.000	10000000000.000
10000000000.000	10000000000.000	10000000000.000	10000000000.000	10000000000.000	10000000000.000	10000000000.000	10000000000.000	10000000000.000	10000000000.000	10000000000.000	10000000000.000	10000000000.000	10000000000.000	10000000000.000	10000000000.000	10000000000.000	10000000000.000	10000000000.000	10000000000.000	10000000000.000	10000000000.000	10000000000.000	10000000000.000	5.023	4.948	4.667	4.314	4.309	5.427	5.359	7.534	6.520	6.171	8.791	10.754	12.525	15.544	19.995	22.328	22.293	20.951	21.261	17.933	20.541	22.730	26.363	28.719	32.306	35.647	37.041	36.934	33.253	31.070	28.552	26.618	26.114	25.145	23.951	20.898	18.988	17.486	16.690	11.031	9.647	10.690	12.005	12.823	12.475	11.607	10.247	10.431	9.325	20.342	19.503	8.703	11.379	6.710	11.790	12.152	18.123	11.508	9.203	8.740	9.888	17.327	10.790	9.821	10.161	9.853	10.743	11.897	10.717	9.459	11.021	9.546	9.929	10.079	9.568	9.457	10.867	11.052	12.433	12.643	10.583	12.709	11.451	10.292	11.175	10.872	10.902	10.916	11.071	11.294	11.443	11.401	11.532	11.685	12.168	14.023	12.155	12.168	13.419	17.278	13.209	13.947	16.797	13.327	12.824	13.936	15.400	15.299	13.327	14.125	13.904	14.225	17.665	16.376	22.325	24.494	23.302	23.559	25.069	25.131	24.968	27.234	29.025	25.274	27.752	22.763	15.471	14.621	14.734	15.886	16.621	16.719	15.331	17.934	17.259	17.076	17.830	17.260	15.550	17.461	18.281	19.404	16.901	16.503	10000000000.000	10000000000.000	10000000000.000	10000000000.000	10000000000.000	10000000000.000	10000000000.000	10000000000.000	10000000000.000	10000000000.000	10000000000.000	10000000000.000	10000000000.000	10000000000.000	10000000000.000	10000000000.000	10000000000.000	10000000000.000	10000000000.000	10000000000.000	10000000000.000	10000000000.000	10000000000.000	10000000000.000
10000000000.000	10000000000.000	10000000000.000	10000000000.000	10000000000.000	10000000000.000	10000000000.000	10000000000.000	10000000000.000	10000000000.000	10000000000.000	10000000000.000	10000000000.000	10000000000.000	10000000000.000	10000000000.000	10000000000.000	10000000000.000	10000000000.000	10000000000.000	10000000000.000	10000000000.000	10000000000.000	10000000000.000	6.080	5.544	5.115	4.799	4.751	5.275	8.497	7.683	6.370	6.380	7.354	11.116	13.505	13.668	18.666	22.509	24.527	24.084	22.678	19.834	21.213	23.363	25.608	30.883	32.660	35.858	37.034	35.786	30.921	28.328	25.734	25.137	24.059	23.868	21.956	19.667	16.771	15.571	14.244	10.591	9.541	10.835	11.828	12.671	12.831	12.682	10.939	9.152	9.789	18.019	17.632	8.654	9.126	6.978	8.919	16.694	28.310	16.838	8.895	8.694	9.367	19.657	16.173	13.642	14.225	13.803	19.187	10.560	9.579	9.651	9.660	9.787	10.947	11.720	11.218	9.500	9.785	11.111	12.528	11.740	11.031	11.731	17.773	18.623	16.144	14.212	11.553	10.981	11.236	11.023	11.512	11.719	11.738	12.016	12.725	13.330	12.431	12.423	13.939	14.178	13.601	16.009	16.676	17.655	12.917	14.445	13.635	15.971	13.759	14.411	18.362	15.155	15.013	14.708	17.235	23.355	17.587	16.018	26.121	26.840	26.351	26.161	27.869	31.837	30.475	23.172	16.412	14.222	14.205	15.224	14.230	15.260	16.351	17.651	17.787	17.945	19.732	19.002	15.556	17.917	17.327	17.024	17.796	18.393	10000000000.000	10000000000.000	10000000000.000	10000000000.000	10000000000.000	10000000000.000	10000000000.000	10000000000.000	10000000000.000	10000000000.000	10000000000.000	10000000000.000	10000000000.000	10000000000.000	10000000000.000	10000000000.000	10000000000.000	10000000000.000	10000000000.000	10000000000.000	10000000000.000	10000000000.000	10000000000.000	10000000000.000
10000000000.000	10000000000.000	10000000000.000	10000000000.000	10000000000.000	10000000000.000	10000000000.000	10000000000.000	10000000000.000	10000000000.000	10000000000.000	10000000000.000	10000000000.000	10000000000.000	10000000000.000	10000000000.000	10000000000.000	10000000000.000	10000000000.000	10000000000.000	10000000000.000	10000000000.000	10000000000.000	10000000000.000	7.927	7.367	6.104	5.391	5.298	5.004	6.060	8.226	6.506	6.553	7.054	11.371	14.793	14.625	15.908	21.664	24.766	25.770	24.650	22.883	24.582	26.363	26.356	27.806	31.952	35.252	36.706	34.668	31.387	28.804	25.576	26.796	27.252	23.894	24.033	23.660	18.392	12.470	8.198	9.159	8.861	10.086	11.500	13.017	12.977	12.882	11.246	9.227	7.412	13.231	9.477	13.930	9.263	6.843	10.617	13.458	24.044	11.146	8.830	8.724	9.087	17.798	17.898	10.342	12.386	10.199	11.205	9.274	9.438	12.356	12.925	12.493	11.944	12.629	12.023	12.127	10.475	13.011	13.548	12.829	10.537	12.649	15.604	11.325	11.434	17.200	17.578	11.226	11.124	11.469	11.412	11.705	12.116	12.187	12.363	12.492	12.417	12.469	13.223	13.319	17.363	15.331	15.999	14.143	12.710	13.341	16.482	15.731	13.978	18.316	16.796	14.558	16.223	15.522	22.518	23.947	19.685	22.276	26.686	26.994	27.749	27.581	28.485	31.494	28.995	21.690	14.378	14.322	14.866	14.879	14.699	15.648	14.934	15.248	15.538	16.619	17.355	15.523	16.417	16.452	18.180	16.862	21.356	16.822	10000000000.000	10000000000.000	10000000000.000	10000000000.000	10000000000.000	10000000000.000	10000000000.000	10000000000.000	10000000000.000	10000000000.000	10000000000.000	10000000000.000	10000000000.000	10000000000.000	10000000000.000	10000000000.000	10000000000.000	10000000000.000	10000000000.000	10000000000.000	10000000000.000	10000000000.000	10000000000.000	10000000000.000
10000000000.000	10000000000.000	10000000000.000	10000000000.000	10000000000.000	10000000000.000	10000000000.000	10000000000.000	10000000000.000	10000000000.000	10000000000.000	10000000000.000	10000000000.000	10000000000.000	10000000000.000	10000000000.000	10000000000.000	10000000000.000	10000000000.000	10000000000.000	10000000000.000	10000000000.000	10000000000.000	10000000000.000	12.081	9.978	8.501	6.655	5.954	5.894	6.897	7.537	7.065	7.231	7.925	10.216	15.242	18.098	15.070	17.012	22.875	25.300	25.760	24.729	24.850	28.257	28.864	28.454	31.178	35.289	36.164	35.857	34.121	30.127	28.515	28.611	28.149	27.029	25.498	23.309	19.913	8.134	6.250	6.740	8.163	9.183	9.945	11.542	12.467	12.808	11.292	9.331	10.541	20.297	9.826	10.930	7.164	6.488	7.671	10.153	24.586	12.137	8.762	8.745	8.844	9.850	18.563	10.717	14.287	11.334	9.352	9.262	10.861	10.641	9.509	10.785	10.454	10.375	10.677	10.190	10.413	11.408	13.310	10.454	12.274	17.122	11.183	10.438	10.596	10.772	12.153	11.312	10.872	11.206	11.319	11.508	11.821	12.192	12.695	12.796	12.558	12.602	14.712	14.471	13.371	13.542	14.470	13.686	12.873	14.062	13.465	14.484	16.491	16.297	16.833	14.643	15.356	17.030	20.828	17.089	15.847	20.224	26.067	28.312	29.906	27.237	26.627	26.148	25.640	15.921	14.399	14.239	14.322	14.230	14.640	14.968	17.211	17.832	17.021	18.063	17.720	15.384	17.586	17.479	16.699	16.231	16.863	19.318	10000000000.000	10000000000.000	10000000000.000	10000000000.000	10000000000.000	10000000000.000	10000000000.000	10000000000.000	10000000000.000	10000000000.000	10000000000.000	10000000000.000	10000000000.000	10000000000.000	10000000000.000	10000000000.000	10000000000.000	10000000000.000	10000000000.000	10000000000.000	10000000000.000	10000000000.000	10000000000.000	10000000000.000
10000000000.000	10000000000.000	10000000000.000	10000000000.000	10000000000.000	10000000000.000	10000000000.000	10000000000.000	10000000000.000	10000000000.000	10000000000.000	10000000000.000	10000000000.000	10000000000.000	10000000000.000	10000000000.000	10000000000.000	10000000000.000	10000000000.000	10000000000.000	10000000000.000	10000000000.000	10000000000.000	10000000000.000	15.416	13.816	12.502	9.374	6.830	7.191	8.317	7.642	7.592	8.095	8.795	9.856	14.954	20.386	19.536	15.684	20.270	23.098	25.020	24.458	22.585	26.577	29.709	32.184	31.928	34.304	36.973	36.121	34.146	32.517	30.183	27.651	26.674	25.270	26.289	25.229	21.614	9.205	7.925	7.661	10.025	9.648	9.454	9.571	10.959	11.853	11.217	9.246	9.026	12.970	17.252	10.757	6.537	7.298	8.683	8.455	9.658	9.124	8.706	8.754	8.825	9.083	13.922	17.451	11.567	11.001	10.056	9.287	11.692	13.508	12.502	12.635	11.952	10.295	10.494	9.888	9.714	12.205	12.901	13.111	13.730	16.142	11.747	13.161	13.178	11.033	20.484	10.922	10.777	11.050	11.151	11.546	12.122	11.975	12.520	12.837	12.490	12.657	21.614	14.110	13.726	15.557	16.072	13.980	12.958	15.493	14.058	16.366	14.106	17.169	17.503	14.047	13.628	13.610	14.940	15.990	19.965	16.044	17.905	23.223	30.213	29.220	24.830	22.354	24.170	16.362	14.579	14.402	15.101	14.233	14.526	14.619	15.869	17.558	15.575	15.887	15.358	15.528	16.501	19.552	16.755	17.117	16.774	16.941	10000000000.000	10000000000.000	10000000000.000	10000000000.000	10000000000.000	10000000000.000	10000000000.000	10000000000.000	10000000000.000	10000000000.000	10000000000.000	10000000000.000	10000000000.000	10000000000.000	10000000000.000	10000000000.000	10000000000.000	10000000000.000	10000000000.000	10000000000.000	10000000000.000	10000000000.000	10000000000.000	10000000000.000
10000000000.000	10000000000.000	10000000000.000	10000000000.000	10000000000.000	10000000000.000	10000000000.000	10000000000.000	10000000000.000	10000000000.000	10000000000.000	10000000000.000	10000000000.000	10000000000.000	10000000000.000	10000000000.000	10000000000.000	10000000000.000	10000000000.000	10000000000.000	10000000000.000	10000000000.000	10000000000.000	10000000000.000	17.756	16.313	15.329	12.630	9.664	7.997	10.566	9.542	8.683	9.361	9.885	10.561	12.049	17.217	16.379	15.778	17.152	19.074	18.970	17.819	17.503	20.296	23.110	29.119	34.244	36.378	37.136	37.320	36.508	35.458	35.481	31.151	27.418	24.679	24.677	24.320	23.159	15.111	9.339	9.581	10.649	10.390	10.399	9.231	8.543	9.797	10.841	9.477	8.878	18.039	18.342	13.766	6.474	6.923	7.913	9.036	9.062	8.738	8.729	8.727	8.849	8.899	9.589	15.932	14.505	11.000	12.292	9.864	12.287	12.008	12.976	12.415	11.351	12.788	13.343	10.862	9.844	15.021	10.616	11.811	14.369	12.378	10.839	10.820	11.280	13.134	11.261	10.535	10.801	10.787	10.987	11.277	11.420	11.624	11.978	12.226	12.251	12.319	12.850	13.504	14.811	15.912	17.205	13.834	12.967	17.052	13.916	14.325	15.571	15.138	17.465	14.216	13.530	13.568	14.597	15.111	16.247	16.802	19.715	25.881	18.951	24.702	17.710	15.384	16.671	18.181	18.951	16.728	14.623	14.495	14.658	14.991	16.252	15.171	17.996	18.109	15.215	15.963	19.414	19.013	18.909	18.209	21.830	18.799	10000000000.000	10000000000.000	10000000000.000	10000000000.000	10000000000.000	10000000000.000	10000000000.000	10000000000.000	10000000000.000	10000000000.000	10000000000.000	10000000000.000	10000000000.000	10000000000.000	10000000000.000	10000000000.000	10000000000.000	10000000000.000	10000000000.000	10000000000.000	10000000000.000	10000000000.000	10000000000.000	10000000000.000
10000000000.000	10000000000.000	10000000000.000	10000000000.000	10000000000.000	10000000000.000	10000000000.000	10000000000.000	10000000000.000	10000000000.000	10000000000.000	10000000000.000	10000000000.000	10000000000.000	10000000000.000	10000000000.000	10000000000.000	10000000000.000	10000000000.000	10000000000.000	10000000000.000	10000000000.000	10000000000.000	10000000000.000	19.889	18.557	17.498	15.132	12.920	9.472	12.240	12.563	14.393	13.732	12.341	12.172	13.117	15.654	16.349	16.207	16.545	16.842	16.976	17.040	17.437	17.527	19.247	24.642	32.634	36.788	38.530	38.836	39.277	38.137	36.259	33.971	30.089	27.606	22.794	26.586	24.594	20.032	10.599	11.082	11.095	10.992	11.456	10.140	8.180	8.607	10.553	9.352	8.381	20.469	11.572	12.291	6.618	10.267	8.037	9.052	8.992	8.721	8.747	8.781	8.850	8.902	9.187	14.257	10.830	11.724	9.800	9.593	10.290	12.898	10.190	9.795	13.149	11.571	12.753	10.519	10.232	10.472	11.484	14.239	13.045	13.332	11.272	10.760	10.864	11.661	11.174	10.718	10.748	10.718	10.942	11.233	11.311	11.439	11.843	12.123	12.089	12.257	14.393	15.589	13.372	14.683	16.065	17.280	12.846	13.130	13.277	16.422	13.842	19.004	17.568	15.681	15.918	13.551	14.972	16.846	14.352	14.737	17.363	25.230	19.808	14.858	14.603	14.577	16.258	15.199	14.672	15.238	14.202	14.501	16.399	15.008	15.796	15.158	15.421	15.302	15.009	18.992	18.339	19.008	16.760	17.145	18.784	18.707	10000000000.000	10000000000.000	10000000000.000	10000000000.000	10000000000.000	10000000000.000	10000000000.000	10000000000.000	10000000000.000	10000000000.000	10000000000.000	10000000000.000	10000000000.000	10000000000.000	10000000000.000	10000000000.000	10000000000.000	10000000000.000	10000000000.000	10000000000.000	10000000000.000	10000000000.000	10000000000.000	10000000000.000
10000000000.000	10000000000.000	10000000000.000	10000000000.000	10000000000.000	10000000000.000	10000000000.000	10000000000.000	10000000000.000	10000000000.000	10000000000.000	10000000000.000	10000000000.000	10000000000.000	10000000000.000	10000000000.000	10000000000.000	10000000000.000	10000000000.000	10000000000.000	10000000000.000	10000000000.000	10000000000.000	10000000000.000	20.890	20.025	18.653	16.437	14.852	12.100	14.029	15.641	15.878	15.738	15.305	14.356	14.226	15.797	16.284	16.573	16.807	17.899	17.072	17.347	17.406	17.453	18.073	21.711	27.815	37.556	39.659	40.446	40.974	40.602	38.875	36.052	32.481	29.537	26.555	28.460	27.020	22.910	19.077	14.109	10.358	11.331	11.463	10.994	9.133	8.808	10.770	10.386	9.005	11.769	8.618	10.052	6.541	8.984	8.389	10.870	8.883	8.799	8.831	8.829	8.866	8.880	8.971	10.478	12.984	11.529	12.113	11.939	9.893	12.027	9.590	10.652	20.227	11.293	13.409	10.222	10.998	10.179	10.334	12.658	11.405	11.714	18.475	19.111	12.662	16.007	11.797	11.031	10.814	10.900	11.149	11.310	11.441	11.330	11.821	12.158	11.971	12.099	13.409	12.238	13.010	21.546	14.769	13.797	13.160	12.564	14.437	13.500	13.994	16.721	15.754	15.943	15.298	13.345	16.670	17.118	15.184	14.926	16.320	20.611	20.603	14.750	14.713	14.776	15.550	15.779	14.769	15.279	14.276	14.299	14.497	14.697	15.503	16.661	17.662	17.485	15.835	15.593	17.574	16.967	16.346	18.143	17.009	20.045	10000000000.000	10000000000.000	10000000000.000	10000000000.000	10000000000.000	10000000000.000	10000000000.000	10000000000.000	10000000000.000	10000000000.000	10000000000.000	10000000000.000	10000000000.000	10000000000.000	10000000000.000	10000000000.000	10000000000.000	10000000000.000	10000000000.000	10000000000.000	10000000000.000	10000000000.000	10000000000.000	10000000000.000
10000000000.000	10000000000.000	10000000000.000	10000000000.000	10000000000.000	10000000000.000	10000000000.000	10000000000.000	10000000000.000	10000000000.000	10000000000.000	10000000000.000	10000000000.000	10000000000.000	10000000000.000	10000000000.000	10000000000.000	10000000000.000	10000000000.000	10000000000.000	10000000000.000	10000000000.000	10000000000.000	10000000000.000	20.248	19.634	18.171	16.447	17.116	15.401	15.626	15.792	15.978	16.005	15.818	15.479	15.360	18.489	18.204	17.777	17.107	17.728	17.384	17.446	17.550	17.714	18.163	19.640	26.204	34.644	37.205	38.406	40.274	40.519	39.350	37.193	33.739	29.897	27.034	27.974	26.907	25.089	22.864	16.792	10.800	11.542	11.809	11.269	10.687	10.021	11.804	10.031	8.937	17.206	15.586	7.906	6.924	10.242	8.561	9.099	8.708	8.788	8.841	8.878	8.921	8.933	8.927	9.253	11.460	12.921	9.561	10.617	9.991	9.708	10.158	10.787	14.784	13.036	11.503	10.698	10.762	10.039	10.436	13.540	11.192	11.890	17.955	20.301	17.466	16.102	11.158	10.746	10.731	10.951	11.186	11.276	11.334	11.254	11.469	11.679	11.695	11.868	15.529	12.832	13.990	17.561	16.753	14.466	12.678	12.673	16.140	15.639	13.732	15.921	13.735	15.887	13.669	13.368	16.218	15.485	14.311	16.741	23.015	21.867	18.264	18.296	18.508	15.672	23.208	15.295	15.622	14.546	14.389	14.222	14.395	14.859	15.499	14.825	14.957	15.013	14.806	17.541	16.331	17.775	16.616	19.174	20.223	20.597	10000000000.000	10000000000.000	10000000000.000	10000000000.000	10000000000.000	10000000000.000	10000000000.000	10000000000.000	10000000000.000	10000000000.000	10000000000.000	10000000000.000	10000000000.000	10000000000.000	10000000000.000	10000000000.000	10000000000.000	10000000000.000	10000000000.000	10000000000.000	10000000000.000	10000000000.000	10000000000.000	10000000000.000
10000000000.000	10000000000.000	10000000000.000	10000000000.000	10000000000.000	10000000000.000	10000000000.000	10000000000.000	10000000000.000	10000000000.000	10000000000.000	10000000000.000	10000000000.000	10000000000.000	10000000000.000	10000000000.000	10000000000.000	10000000000.000	10000000000.000	10000000000.000	10000000000.000	10000000000.000	10000000000.000	10000000000.000	17.674	16.143	15.475	15.218	17.372	17.658	17.093	16.180	20.547	21.396	16.361	16.070	16.316	19.108	18.465	19.102	17.354	17.395	17.624	17.697	17.856	18.026	18.223	19.468	25.616	31.069	34.445	35.763	37.243	37.603	37.511	35.625	32.942	31.274	28.251	29.271	28.170	24.891	24.153	19.956	11.572	12.103	13.262	12.449	12.370	11.658	12.023	11.135	8.929	16.893	24.875	10.679	7.227	9.874	8.449	8.775	9.022	8.839	8.800	8.904	8.986	8.987	8.997	9.086	9.332	11.040	11.249	12.006	9.818	9.576	11.325	11.981	10.150	12.271	12.502	13.200	11.306	12.419	10.525	10.270	10.795	11.473	21.260	20.427	18.471	13.011	14.909	10.678	10.737	10.976	11.159	11.312	11.311	11.303	11.450	11.572	11.596	11.935	18.112	16.347	17.486	12.296	16.121	19.667	12.558	13.629	13.750	14.123	14.134	13.585	14.531	17.165	13.367	13.301	17.393	14.753	14.453	17.674	25.772	22.063	15.528	19.049	19.201	19.700	21.255	16.666	16.426	14.992	16.794	14.471	14.358	14.934	22.020	15.155	15.224	15.165	14.703	15.814	18.216	18.934	18.653	21.092	16.948	16.813	10000000000.000	10000000000.000	10000000000.000	10000000000.000	10000000000.000	10000000000.000	10000000000.000	10000000000.000	10000000000.000	10000000000.000	10000000000.000	10000000000.000	10000000000.000	10000000000.000	10000000000.000	10000000000.000	10000000000.000	10000000000.000	10000000000.000	10000000000.000	10000000000.000	10000000000.000	10000000000.000	10000000000.000
10000000000.000	10000000000.000	10000000000.000	10000000000.000	10000000000.000	10000000000.000	10000000000.000	10000000000.000	10000000000.000	10000000000.000	10000000000.000	10000000000.000	10000000000.000	10000000000.000	10000000000.000	10000000000.000	10000000000.000	10000000000.000	10000000000.000	10000000000.000	10000000000.000	10000000000.000	10000000000.000	10000000000.000	13.166	14.146	12.275	14.318	16.454	17.322	17.864	16.649	16.687	17.004	16.453	16.630	16.775	16.856	17.661	17.557	17.582	17.567	17.823	17.931	18.066	18.135	18.220	19.306	24.046	31.220	31.916	31.516	33.206	35.223	38.162	36.682	36.074	32.390	30.279	29.386	28.793	27.711	24.571	23.521	13.968	12.889	13.668	14.055	11.968	12.240	11.494	10.587	8.283	12.035	23.671	10.220	8.704	12.456	9.228	8.926	10.061	8.843	8.852	8.874	8.952	9.047	9.134	9.095	9.136	9.665	12.325	10.214	12.996	12.555	9.954	13.214	10.830	11.271	12.162	10.877	11.841	11.653	10.563	10.577	10.124	13.712	18.924	11.834	11.291	10.919	10.861	10.803	10.773	12.517	11.369	11.204	11.331	11.269	11.418	11.521	11.553	12.098	24.913	21.632	13.947	11.899	12.393	13.997	12.183	13.041	15.665	15.721	14.611	14.776	16.226	16.783	13.783	13.856	16.575	15.060	14.179	17.545	25.494	22.230	20.808	18.211	15.811	23.620	22.825	22.758	17.929	15.655	14.672	14.591	14.801	15.649	15.847	15.648	18.289	14.914	14.746	14.871	16.466	17.924	16.197	16.858	18.921	17.252	10000000000.000	10000000000.000	10000000000.000	10000000000.000	10000000000.000	10000000000.000	10000000000.000	10000000000.000	10000000000.000	10000000000.000	10000000000.000	10000000000.000	10000000000.000	10000000000.000	10000000000.000	10000000000.000	10000000000.000	10000000000.000	10000000000.000	10000000000.000	10000000000.000	10000000000.000	10000000000.000	10000000000.000
10000000000.000	10000000000.000	10000000000.000	10000000000.000	10000000000.000	10000000000.000	10000000000.000	10000000000.000	10000000000.000	10000000000.000	10000000000.000	10000000000.000	10000000000.000	10000000000.000	10000000000.000	10000000000.000	10000000000.000	10000000000.000	10000000000.000	10000000000.000	10000000000.000	10000000000.000	10000000000.000	10000000000.000	9.563	7.652	7.925	10.907	14.011	16.073	19.048	18.611	18.671	18.650	18.735	17.969	17.465	17.358	17.255	17.589	17.850	17.949	18.094	18.195	18.211	18.213	18.337	18.761	22.590	28.009	28.773	29.164	29.703	31.522	37.040	36.447	35.786	32.618	30.398	29.209	28.508	27.687	25.061	24.025	18.874	13.894	13.827	14.041	11.694	10.902	11.174	11.857	8.723	10.556	20.225	7.272	10.247	22.630	18.199	9.455	8.974	8.848	8.891	8.957	9.044	9.079	9.163	9.187	9.178	9.299	9.939	14.788	17.201	12.202	9.472	11.812	10.445	10.153	10.706	11.967	13.288	13.728	10.446	10.324	10.345	13.100	10.884	10.549	10.698	10.973	10.794	10.888	10.999	11.066	11.058	10.948	11.279	11.365	11.458	11.574	11.516	11.813	15.477	13.224	12.529	12.999	13.689	14.227	12.176	12.220	12.293	13.783	12.639	12.427	19.579	14.861	12.912	13.182	15.891	14.209	13.726	14.674	24.386	25.304	24.166	20.583	18.817	19.064	22.111	21.333	18.098	15.014	15.090	14.845	14.731	15.187	16.558	18.021	17.242	18.473	14.694	14.751	15.476	15.478	16.102	16.717	18.947	16.878	10000000000.000	10000000000.000	10000000000.000	10000000000.000	10000000000.000	10000000000.000	10000000000.000	10000000000.000	10000000000.000	10000000000.000	10000000000.000	10000000000.000	10000000000.000	10000000000.000	10000000000.000	10000000000.000	10000000000.000	10000000000.000	10000000000.000	10000000000.000	10000000000.000	10000000000.000	10000000000.000	10000000000.000
10000000000.000	10000000000.000	10000000000.000	10000000000.000	10000000000.000	10000000000.000	10000000000.000	10000000000.000	10000000000.000	10000000000.000	10000000000.000	10000000000.000	10000000000.000	10000000000.000	10000000000.000	10000000000.000	10000000000.000	10000000000.000	10000000000.000	10000000000.000	10000000000.000	10000000000.000	10000000000.000	10000000000.000	12.943	9.156	7.543	7.814	10.883	15.869	18.990	19.678	19.864	20.273	20.508	20.426	18.847	18.096	17.755	17.789	18.028	18.265	18.327	18.290	18.402	18.365	18.410	18.889	21.616	22.141	23.838	26.109	27.713	29.849	32.606	34.385	33.898	30.336	28.964	27.948	26.319	26.780	24.091	17.471	15.324	14.706	14.497	14.828	13.715	10.605	9.154	8.800	8.474	10.358	11.339	7.638	13.297	18.583	19.209	9.198	11.556	9.034	8.988	8.999	9.059	9.149	9.206	9.233	9.237	9.292	9.428	9.980	14.301	14.426	10.420	13.260	13.032	10.006	11.016	10.813	12.073	13.748	10.320	10.199	10.853	13.312	13.797	11.913	10.909	10.870	10.866	10.913	11.211	11.359	11.198	11.339	11.343	11.432	11.536	11.547	11.497	11.569	12.412	15.126	14.038	14.070	18.909	14.183	17.643	12.071	12.104	12.116	12.265	12.728	13.283	13.150	12.885	13.093	13.298	13.405	13.466	14.123	23.211	26.555	30.165	27.562	18.978	18.604	22.066	18.984	26.443	15.740	18.436	19.125	14.795	15.701	15.578	15.325	18.735	17.445	14.962	14.843	15.076	15.256	15.676	16.264	16.407	17.772	10000000000.000	10000000000.000	10000000000.000	10000000000.000	10000000000.000	10000000000.000	10000000000.000	10000000000.000	10000000000.000	10000000000.000	10000000000.000	10000000000.000	10000000000.000	10000000000.000	10000000000.000	10000000000.000	10000000000.000	10000000000.000	10000000000.000	10000000000.000	10000000000.000	10000000000.000	10000000000.000	10000000000.000
10000000000.000	10000000000.000	10000000000.000	10000000000.000	10000000000.000	10000000000.000	10000000000.000	10000000000.000	10000000000.000	10000000000.000	10000000000.000	10000000000.000	10000000000.000	10000000000.000	10000000000.000	10000000000.000	10000000000.000	10000000000.000	10000000000.000	10000000000.000	10000000000.000	10000000000.000	10000000000.000	10000000000.000	12.860	10.541	8.329	9.492	10.705	17.061	19.020	20.455	21.429	21.760	21.748	21.621	20.769	19.426	18.634	18.280	18.547	18.580	18.647	18.484	18.465	18.531	19.738	20.209	19.882	20.689	22.598	24.889	26.966	29.055	28.642	31.062	31.010	28.135	27.662	24.462	24.831	25.392	24.534	21.542	15.934	15.586	15.291	15.271	14.731	12.371	9.964	8.589	8.831	13.621	12.113	8.151	8.264	12.373	20.082	9.640	9.490	13.560	9.178	9.058	9.112	9.223	9.233	9.248	9.286	9.337	9.405	9.539	9.859	11.773	13.104	11.469	11.011	12.000	10.507	12.594	10.131	10.851	13.035	10.324	12.809	11.280	11.351	11.224	11.178	11.017	10.932	11.060	12.644	10.914	10.933	11.053	11.266	11.323	11.360	11.386	11.491	11.619	12.227	13.406	14.500	15.298	13.682	16.404	15.316	13.903	13.974	14.004	13.342	13.038	13.287	15.596	13.375	15.762	14.401	17.136	15.361	14.259	18.447	21.484	29.180	29.758	27.444	29.973	29.294	24.158	16.260	16.510	21.835	18.343	14.660	15.290	15.307	16.516	17.195	17.200	15.255	15.858	17.040	16.506	16.597	16.868	16.618	18.391	10000000000.000	10000000000.000	10000000000.000	10000000000.000	10000000000.000	10000000000.000	10000000000.000	10000000000.000	10000000000.000	10000000000.000	10000000000.000	10000000000.000	10000000000.000	10000000000.000	10000000000.000	10000000000.000	10000000000.000	10000000000.000	10000000000.000	10000000000.000	10000000000.000	10000000000.000	10000000000.000	10000000000.000
10000000000.000	10000000000.000	10000000000.000	10000000000.000	10000000000.000	10000000000.000	10000000000.000	10000000000.000	10000000000.000	10000000000.000	10000000000.000	10000000000.000	10000000000.000	10000000000.000	10000000000.000	10000000000.000	10000000000.000	10000000000.000	10000000000.000	10000000000.000	10000000000.000	10000000000.000	10000000000.000	10000000000.000	11.547	11.851	9.579	9.345	10.599	16.478	18.785	20.684	22.293	23.140	22.998	22.733	22.381	20.652	19.326	18.638	18.718	18.864	18.832	18.663	18.565	18.612	20.720	19.770	19.445	19.890	21.396	23.123	24.814	26.519	26.092	27.862	29.426	29.287	21.465	24.724	13.262	21.483	21.705	22.976	22.022	16.081	15.752	15.475	14.824	12.867	11.161	8.805	8.862	20.022	18.473	10.002	6.612	8.506	9.503	10.072	11.345	12.660	9.201	9.127	9.182	9.278	9.324	9.314	9.329	9.428	9.488	9.557	9.588	9.777	10.150	15.240	16.616	15.043	13.228	12.816	10.353	11.479	13.357	10.393	11.088	10.892	13.502	13.058	11.418	11.146	10.850	10.451	10.738	10.916	10.706	10.887	11.218	11.272	11.225	11.252	11.190	11.366	12.479	18.470	12.881	13.211	14.580	12.786	14.756	16.066	16.520	16.409	16.255	17.205	17.706	15.608	14.374	16.711	14.756	19.260	14.527	17.337	18.025	24.154	27.617	28.273	26.661	22.926	26.306	26.725	25.273	23.542	24.327	19.484	15.545	16.008	15.507	16.884	18.196	15.676	15.212	17.556	17.912	18.539	18.159	16.056	16.403	16.420	10000000000.000	10000000000.000	10000000000.000	10000000000.000	10000000000.000	10000000000.000	10000000000.000	10000000000.000	10000000000.000	10000000000.000	10000000000.000	10000000000.000	10000000000.000	10000000000.000	10000000000.000	10000000000.000	10000000000.000	10000000000.000	10000000000.000	10000000000.000	10000000000.000	10000000000.000	10000000000.000	10000000000.000
10000000000.000	10000000000.000	10000000000.000	10000000000.000	10000000000.000	10000000000.000	10000000000.000	10000000000.000	10000000000.000	10000000000.000	10000000000.000	10000000000.000	10000000000.000	10000000000.000	10000000000.000	10000000000.000	10000000000.000	10000000000.000	10000000000.000	10000000000.000	10000000000.000	10000000000.000	10000000000.000	10000000000.000	10.395	12.487	10.716	9.980	10.936	14.151	16.936	20.093	23.165	26.631	23.723	22.998	22.706	21.452	19.984	19.257	18.993	19.039	18.931	18.789	18.829	18.661	18.852	19.201	19.303	19.309	19.404	21.358	22.718	23.522	24.341	24.731	25.014	12.714	19.153	26.067	20.101	24.174	22.613	16.570	22.712	20.171	18.493	14.835	14.620	13.415	11.861	8.532	8.838	16.026	23.206	9.366	6.826	10.382	9.468	9.323	14.078	13.681	9.415	9.217	9.251	9.316	9.367	9.403	9.413	9.562	9.566	9.548	9.657	9.808	9.799	9.989	10.661	11.465	14.424	15.025	15.295	14.187	11.061	10.747	13.602	13.029	11.840	12.152	11.381	10.873	10.504	11.216	16.204	12.103	10.858	10.928	11.415	11.617	11.165	11.695	12.021	12.381	14.807	17.354	14.217	14.905	14.843	13.121	13.576	15.145	15.702	15.450	17.830	15.266	19.210	17.010	16.836	14.564	14.946	17.147	16.730	14.804	22.633	28.072	29.873	29.713	28.227	25.056	29.306	28.822	27.856	29.194	28.712	24.713	21.502	26.962	19.556	17.461	16.220	15.646	15.323	15.606	16.939	17.687	18.740	21.391	16.619	16.368	10000000000.000	10000000000.000	10000000000.000	10000000000.000	10000000000.000	10000000000.000	10000000000.000	10000000000.000	10000000000.000	10000000000.000	10000000000.000	10000000000.000	10000000000.000	10000000000.000	10000000000.000	10000000000.000	10000000000.000	10000000000.000	10000000000.000	10000000000.000	10000000000.000	10000000000.000	10000000000.000	10000000000.000
10000000000.000	10000000000.000	10000000000.000	10000000000.000	10000000000.000	10000000000.000	10000000000.000	10000000000.000	10000000000.000	10000000000.000	10000000000.000	10000000000.000	10000000000.000	10000000000.000	10000000000.000	10000000000.000	10000000000.000	10000000000.000	10000000000.000	10000000000.000	10000000000.000	10000000000.000	10000000000.000	10000000000.000	10.819	12.250	11.349	11.486	11.652	14.325	15.727	18.299	21.747	24.735	27.491	23.091	22.091	21.557	20.241	19.448	19.204	19.118	19.374	18.780	18.795	18.858	18.680	21.097	19.939	19.382	18.932	19.576	19.830	20.926	21.602	21.016	18.743	16.021	13.791	14.258	16.393	18.886	21.956	16.744	23.073	21.287	21.392	13.851	13.705	13.232	10.352	8.093	8.893	14.659	24.582	11.521	7.198	9.606	14.789	9.193	13.793	16.653	12.376	9.332	9.247	9.331	9.420	9.433	9.486	9.576	9.673	9.665	9.700	9.737	9.829	9.884	9.932	9.978	10.154	10.335	10.382	11.086	11.319	13.109	12.858	13.430	14.297	14.246	10.706	10.762	10.615	11.322	11.623	11.321	11.210	11.500	12.102	14.277	16.084	19.536	19.214	18.337	17.696	21.758	19.847	13.675	17.833	15.837	13.263	20.159	22.891	22.618	22.493	15.973	15.016	16.043	14.955	14.195	18.669	18.566	16.430	15.806	27.958	29.207	27.001	28.920	26.625	22.070	31.191	30.850	31.603	30.302	19.763	24.079	28.383	26.778	16.798	19.067	18.886	15.912	15.480	18.143	16.867	18.959	23.214	22.875	17.119	16.537	10000000000.000	10000000000.000	10000000000.000	10000000000.000	10000000000.000	10000000000.000	10000000000.000	10000000000.000	10000000000.000	10000000000.000	10000000000.000	10000000000.000	10000000000.000	10000000000.000	10000000000.000	10000000000.000	10000000000.000	10000000000.000	10000000000.000	10000000000.000	10000000000.000	10000000000.000	10000000000.000	10000000000.000
10000000000.000	10000000000.000	10000000000.000	10000000000.000	10000000000.000	10000000000.000	10000000000.000	10000000000.000	10000000000.000	10000000000.000	10000000000.000	10000000000.000	10000000000.000	10000000000.000	10000000000.000	10000000000.000	10000000000.000	10000000000.000	10000000000.000	10000000000.000	10000000000.000	10000000000.000	10000000000.000	10000000000.000	10.887	12.819	13.610	13.555	12.999	14.067	15.463	16.169	19.410	22.736	23.197	21.807	20.277	20.580	20.234	19.703	19.409	19.360	19.199	18.644	18.953	20.380	18.630	18.902	20.459	19.603	18.871	18.458	18.235	18.304	18.597	18.613	18.055	16.579	14.526	12.960	12.502	12.592	14.184	15.182	23.029	22.689	17.855	11.844	12.877	11.097	10.861	8.427	8.979	12.793	21.226	9.104	7.177	14.975	20.444	10.016	10.430	16.051	14.588	9.828	9.365	9.379	9.433	9.540	9.620	9.671	9.616	9.766	9.809	9.797	9.846	9.879	9.998	10.032	10.094	10.175	10.220	10.361	10.458	10.665	11.205	11.672	11.949	11.989	11.906	11.970	12.031	12.212	12.155	11.646	11.479	11.536	11.800	15.433	14.185	14.842	13.722	16.018	16.042	20.580	17.073	15.104	15.178	11.202	11.497	23.333	17.910	24.177	30.008	16.253	12.948	15.821	15.713	14.873	15.473	16.338	21.655	23.555	28.524	28.734	30.585	27.071	18.820	26.148	28.692	30.301	22.082	29.945	30.210	28.218	29.769	28.151	17.312	19.137	17.833	17.543	15.717	16.151	18.049	17.912	18.381	18.319	19.339	17.103	10000000000.000	10000000000.000	10000000000.000	10000000000.000	10000000000.000	10000000000.000	10000000000.000	10000000000.000	10000000000.000	10000000000.000	10000000000.000	10000000000.000	10000000000.000	10000000000.000	10000000000.000	10000000000.000	10000000000.000	10000000000.000	10000000000.000	10000000000.000	10000000000.000	10000000000.000	10000000000.000	10000000000.000
10000000000.000	10000000000.000	10000000000.000	10000000000.000	10000000000.000	10000000000.000	10000000000.000	10000000000.000	10000000000.000	10000000000.000	10000000000.000	10000000000.000	10000000000.000	10000000000.000	10000000000.000	10000000000.000	10000000000.000	10000000000.000	10000000000.000	10000000000.000	10000000000.000	10000000000.000	10000000000.000	10000000000.000	12.817	14.829	15.213	13.300	12.991	13.109	14.212	16.329	17.268	20.241	21.647	20.210	19.766	19.796	19.772	19.810	19.622	19.562	19.273	18.480	18.342	20.311	19.050	18.537	20.168	19.853	18.545	18.003	17.424	17.260	17.336	16.731	17.133	16.152	15.075	14.029	13.232	13.004	13.247	13.475	20.149	21.336	9.331	8.975	14.768	8.845	8.340	8.483	9.165	11.533	22.020	17.348	7.313	7.681	9.901	8.994	9.462	13.890	16.257	12.752	9.428	9.442	9.546	9.608	9.674	9.711	9.710	9.822	9.904	9.858	9.933	9.991	10.026	10.068	10.163	10.222	10.272	10.380	10.472	10.643	10.840	11.200	11.679	11.222	11.256	11.306	11.571	11.691	11.456	11.562	13.164	12.186	11.467	10.849	11.095	12.277	13.104	19.240	14.173	10.928	14.477	15.577	15.219	12.162	12.928	14.437	17.143	16.426	22.116	19.475	14.358	18.665	14.702	28.432	17.249	15.048	21.357	23.422	26.005	29.755	30.796	29.761	24.198	17.690	19.606	27.216	22.749	28.123	31.841	27.941	29.577	25.659	18.004	20.550	21.359	19.839	16.177	15.928	18.998	18.957	16.998	18.569	18.987	19.171	10000000000.000	10000000000.000	10000000000.000	10000000000.000	10000000000.000	10000000000.000	10000000000.000	10000000000.000	10000000000.000	10000000000.000	10000000000.000	10000000000.000	10000000000.000	10000000000.000	10000000000.000	10000000000.000	10000000000.000	10000000000.000	10000000000.000	10000000000.000	10000000000.000	10000000000.000	10000000000.000	10000000000.000
10000000000.000	10000000000.000	10000000000.000	10000000000.000	10000000000.000	10000000000.000	10000000000.000	10000000000.000	10000000000.000	10000000000.000	10000000000.000	10000000000.000	10000000000.000	10000000000.000	10000000000.000	10000000000.000	10000000000.000	10000000000.000	10000000000.000	10000000000.000	10000000000.000	10000000000.000	10000000000.000	10000000000.000	13.691	11.634	14.339	13.253	10.573	10.386	15.046	17.452	16.905	17.211	18.864	19.209	19.565	19.623	19.610	19.664	19.593	19.555	19.114	18.375	18.215	18.499	19.846	18.352	18.476	19.595	18.167	17.369	16.620	15.758	15.526	15.303	14.781	14.746	14.980	14.135	13.406	13.030	12.858	12.883	15.214	18.783	9.046	8.279	8.535	8.354	8.252	8.560	8.892	10.857	19.509	22.974	9.343	6.616	6.929	8.287	9.136	9.770	14.932	13.519	9.896	9.512	9.634	9.705	9.753	9.785	9.840	9.903	9.939	10.005	9.966	10.036	10.050	10.149	10.202	10.289	10.399	10.489	10.561	10.732	10.927	11.093	10.855	10.846	11.004	10.909	11.201	11.386	15.653	12.183	12.479	12.232	11.073	11.633	14.050	21.275	21.050	14.734	16.856	13.428	12.886	14.702	11.761	12.099	11.637	12.425	17.067	15.691	14.250	16.681	16.193	17.489	19.144	20.767	13.291	17.897	14.622	20.551	25.887	24.751	29.483	26.433	27.294	18.259	27.742	30.831	32.824	31.405	26.159	27.610	29.596	29.523	26.002	26.029	22.546	18.190	18.875	18.145	17.434	17.467	19.041	20.992	17.950	16.617	10000000000.000	10000000000.000	10000000000.000	10000000000.000	10000000000.000	10000000000.000	10000000000.000	10000000000.000	10000000000.000	10000000000.000	10000000000.000	10000000000.000	10000000000.000	10000000000.000	10000000000.000	10000000000.000	10000000000.000	10000000000.000	10000000000.000	10000000000.000	10000000000.000	10000000000.000	10000000000.000	10000000000.000
10000000000.000	10000000000.000	10000000000.000	10000000000.000	10000000000.000	10000000000.000	10000000000.000	10000000000.000	10000000000.000	10000000000.000	10000000000.000	10000000000.000	10000000000.000	10000000000.000	10000000000.000	10000000000.000	10000000000.000	10000000000.000	10000000000.000	10000000000.000	10000000000.000	10000000000.000	10000000000.000	10000000000.000	5.464	6.220	8.681	9.861	6.598	10.276	11.563	15.237	18.539	20.127	17.264	18.454	19.219	19.397	19.505	19.468	19.584	19.769	19.385	18.495	17.991	18.133	21.093	18.623	18.076	18.777	17.419	16.451	15.280	14.609	14.150	13.929	13.356	13.451	13.996	13.941	13.228	12.905	12.601	12.591	15.846	18.398	8.833	8.062	8.364	7.839	8.253	8.378	8.784	9.433	15.666	23.588	9.470	7.336	6.786	7.445	8.566	9.255	11.907	15.444	10.906	9.652	9.681	9.752	9.759	9.851	9.883	9.954	10.022	10.066	10.103	10.229	10.181	10.201	10.270	10.353	10.453	10.527	10.655	10.875	10.809	11.289	10.945	10.731	10.749	11.121	11.930	12.477	12.909	11.408	10.670	14.196	10.686	10.702	11.305	12.179	12.224	15.902	14.435	14.245	13.992	15.255	13.429	11.575	11.158	11.405	11.914	12.362	15.550	15.997	14.534	17.334	18.139	15.617	13.619	20.291	16.458	13.927	16.135	16.894	22.306	23.974	28.258	28.417	25.602	27.981	27.334	29.041	27.838	27.128	31.341	30.564	29.277	27.461	19.916	19.865	20.285	19.240	18.732	18.785	17.515	19.702	17.753	100.000	10000000000.000	10000000000.000	10000000000.000	10000000000.000	10000000000.000	10000000000.000	10000000000.000	10000000000.000	10000000000.000	10000000000.000	10000000000.000	10000000000.000	10000000000.000	10000000000.000	10000000000.000	10000000000.000	10000000000.000	10000000000.000	10000000000.000	10000000000.000	10000000000.000	10000000000.000	10000000000.000	10000000000.000
10000000000.000	10000000000.000	10000000000.000	10000000000.000	10000000000.000	10000000000.000	10000000000.000	10000000000.000	10000000000.000	10000000000.000	10000000000.000	10000000000.000	10000000000.000	10000000000.000	10000000000.000	10000000000.000	10000000000.000	10000000000.000	10000000000.000	10000000000.000	10000000000.000	10000000000.000	10000000000.000	10000000000.000	4.929	4.928	7.383	6.886	7.407	10.701	12.625	14.719	19.370	21.539	19.837	18.025	18.745	19.090	19.751	19.361	19.393	19.319	19.323	18.643	17.682	17.673	21.217	18.770	17.750	17.229	16.634	15.448	14.301	13.720	13.467	12.968	12.907	12.816	13.052	13.426	12.998	12.705	12.416	12.273	11.316	9.361	8.388	8.139	8.325	8.258	8.330	8.377	8.640	9.135	12.363	23.015	11.937	8.776	7.797	6.884	7.962	8.793	9.525	12.030	12.833	10.548	9.946	9.874	9.898	9.932	9.860	9.995	10.007	10.052	10.112	10.152	10.178	10.239	10.342	10.410	10.521	10.640	11.015	11.275	11.482	11.133	11.283	10.728	10.809	14.618	17.711	12.242	11.227	10.335	10.564	11.306	11.444	13.585	14.541	13.674	14.109	11.432	10.775	13.628	16.061	17.754	15.559	14.349	13.903	11.646	11.630	14.695	15.552	17.958	15.154	15.983	15.152	13.324	15.939	18.478	22.298	18.346	16.367	15.354	15.782	15.541	14.861	22.662	25.733	22.013	25.814	28.791	24.441	28.892	30.707	26.642	30.325	30.730	20.792	25.838	18.466	24.762	18.616	21.391	20.039	25.120	16.791	100.000	10000000000.000	10000000000.000	10000000000.000	10000000000.000	10000000000.000	10000000000.000	10000000000.000	10000000000.000	10000000000.000	10000000000.000	10000000000.000	10000000000.000	10000000000.000	10000000000.000	10000000000.000	10000000000.000	10000000000.000	10000000000.000	10000000000.000	10000000000.000	10000000000.000	10000000000.000	10000000000.000	10000000000.000
10000000000.000	10000000000.000	10000000000.000	10000000000.000	10000000000.000	10000000000.000	10000000000.000	10000000000.000	10000000000.000	10000000000.000	10000000000.000	10000000000.000	10000000000.000	10000000000.000	10000000000.000	10000000000.000	10000000000.000	10000000000.000	10000000000.000	10000000000.000	10000000000.000	10000000000.000	10000000000.000	10000000000.000	4.987	5.209	5.225	6.334	10.132	14.883	18.045	15.978	16.703	17.361	17.615	18.149	18.637	18.901	19.328	19.640	22.063	19.735	19.163	18.439	17.306	17.168	19.373	21.567	18.454	16.907	16.047	15.006	13.858	13.270	13.196	12.900	12.531	12.743	12.502	13.063	12.790	12.696	12.306	11.896	10.755	9.148	7.946	8.843	8.175	11.614	9.149	8.517	8.741	8.899	9.924	10.571	22.496	19.898	19.628	8.510	7.098	8.186	8.915	9.719	14.217	16.256	13.752	14.150	12.018	12.174	10.222	10.506	10.238	10.132	10.209	10.234	10.271	10.328	10.396	10.447	10.515	10.833	16.413	15.873	18.343	11.094	10.672	10.797	13.012	12.388	11.026	11.985	12.870	13.057	11.538	9.492	8.897	9.031	9.162	9.053	9.023	9.527	9.146	9.264	9.352	11.574	15.099	15.635	17.869	17.748	11.492	12.055	14.622	15.412	13.818	14.637	15.400	12.472	17.016	20.490	18.225	15.595	16.121	15.906	15.495	15.497	13.581	15.965	16.468	16.518	15.782	21.022	25.527	29.830	28.628	30.163	29.516	31.096	22.182	22.941	17.912	20.085	16.241	19.665	18.732	24.587	20.888	100.000	10000000000.000	10000000000.000	10000000000.000	10000000000.000	10000000000.000	10000000000.000	10000000000.000	10000000000.000	10000000000.000	10000000000.000	10000000000.000	10000000000.000	10000000000.000	10000000000.000	10000000000.000	10000000000.000	10000000000.000	10000000000.000	10000000000.000	10000000000.000	10000000000.000	10000000000.000	10000000000.000	10000000000.000
10000000000.000	10000000000.000	10000000000.000	10000000000.000	10000000000.000	10000000000.000	10000000000.000	10000000000.000	10000000000.000	10000000000.000	10000000000.000	10000000000.000	10000000000.000	10000000000.000	10000000000.000	10000000000.000	10000000000.000	10000000000.000	10000000000.000	10000000000.000	10000000000.000	10000000000.000	10000000000.000	10000000000.000	7.467	5.338	5.279	10.012	13.006	16.458	19.832	17.592	18.282	18.820	18.543	18.583	18.540	18.524	18.842	19.742	23.072	19.719	19.012	18.348	16.864	16.590	17.324	19.782	18.674	16.675	15.421	14.440	13.545	12.823	12.595	12.378	12.430	12.435	12.741	12.612	12.652	12.599	12.302	11.725	10.212	8.652	7.988	8.532	8.585	14.778	14.540	8.606	8.672	8.886	9.053	10.466	10.930	10.467	19.049	15.108	8.642	7.217	7.518	8.774	9.477	10.622	14.016	15.511	13.776	16.401	15.732	15.072	12.960	10.419	11.355	10.660	12.947	10.470	10.462	10.501	10.578	11.398	18.141	15.077	11.147	10.680	11.047	15.537	10.655	9.405	13.345	9.782	9.345	8.962	8.800	8.710	8.794	8.879	8.935	9.025	9.151	8.999	9.171	9.192	9.134	9.182	9.093	10.287	15.842	20.436	16.573	15.198	11.769	12.734	14.690	15.353	14.212	13.763	12.928	14.832	22.232	15.724	13.681	15.045	15.357	15.153	15.544	13.503	15.085	14.680	14.808	15.371	16.888	23.716	24.273	24.196	26.511	27.678	25.866	22.343	17.822	14.670	16.560	20.869	16.427	19.289	22.995	100.000	10000000000.000	10000000000.000	10000000000.000	10000000000.000	10000000000.000	10000000000.000	10000000000.000	10000000000.000	10000000000.000	10000000000.000	10000000000.000	10000000000.000	10000000000.000	10000000000.000	10000000000.000	10000000000.000	10000000000.000	10000000000.000	10000000000.000	10000000000.000	10000000000.000	10000000000.000	10000000000.000	10000000000.000
10000000000.000	10000000000.000	10000000000.000	10000000000.000	10000000000.000	10000000000.000	10000000000.000	10000000000.000	10000000000.000	10000000000.000	10000000000.000	10000000000.000	10000000000.000	10000000000.000	10000000000.000	10000000000.000	10000000000.000	10000000000.000	10000000000.000	10000000000.000	10000000000.000	10000000000.000	10000000000.000	10000000000.000	5.471	5.115	8.792	10.283	13.641	17.571	21.598	19.515	20.006	20.095	19.448	18.797	18.678	18.621	18.956	20.355	21.782	19.195	18.947	18.006	16.346	16.064	15.805	18.347	17.494	16.015	14.928	14.010	13.225	12.511	12.437	12.518	12.648	12.375	12.833	12.572	12.383	12.513	12.457	13.683	14.221	8.599	8.230	8.244	9.022	11.609	8.821	8.473	8.618	8.798	9.003	9.267	10.317	10.419	18.738	24.807	18.177	8.040	7.037	7.387	8.549	9.263	9.631	10.464	10.575	14.157	13.973	14.019	10.002	10.226	10.576	10.475	12.092	11.365	11.307	12.829	10.695	13.429	19.679	11.832	10.343	13.831	16.058	13.205	10.095	9.345	8.868	8.603	8.585	8.641	8.727	9.126	9.418	9.546	9.579	9.564	9.769	9.699	9.668	9.548	9.568	9.762	9.267	9.283	9.838	13.707	13.622	15.077	14.231	11.840	12.415	14.584	14.697	13.872	12.988	15.809	24.175	12.886	12.808	14.971	15.333	18.405	14.814	14.578	14.659	15.274	15.518	14.151	14.326	16.517	16.567	20.246	23.120	20.290	17.245	19.703	14.387	14.722	21.697	28.282	15.576	14.958	14.711	100.000	10000000000.000	10000000000.000	10000000000.000	10000000000.000	10000000000.000	10000000000.000	10000000000.000	10000000000.000	10000000000.000	10000000000.000	10000000000.000	10000000000.000	10000000000.000	10000000000.000	10000000000.000	10000000000.000	10000000000.000	10000000000.000	10000000000.000	10000000000.000	10000000000.000	10000000000.000	10000000000.000	10000000000.000
10000000000.000	10000000000.000	10000000000.000	10000000000.000	10000000000.000	10000000000.000	10000000000.000	10000000000.000	10000000000.000	10000000000.000	10000000000.000	10000000000.000	10000000000.000	10000000000.000	10000000000.000	10000000000.000	10000000000.000	10000000000.000	10000000000.000	10000000000.000	10000000000.000	10000000000.000	10000000000.000	10000000000.000	5.071	5.767	10.813	7.289	15.650	18.654	20.903	20.328	20.476	20.672	20.122	19.068	18.850	18.679	18.744	19.078	21.446	19.047	18.766	17.131	15.860	15.478	14.874	16.066	15.646	15.188	14.631	13.887	13.013	12.615	12.369	12.428	12.490	12.461	12.384	12.833	12.770	12.626	12.486	13.218	20.375	8.703	7.931	7.950	8.292	8.238	8.181	8.316	8.535	8.772	9.030	9.184	9.364	10.589	12.477	19.884	19.352	9.801	7.543	7.172	7.237	8.482	8.588	9.157	9.823	14.067	12.118	12.332	10.157	10.445	12.095	10.306	10.972	10.773	10.904	12.047	10.318	10.436	10.612	10.235	11.920	15.806	14.743	12.708	10.603	9.021	8.655	8.582	9.006	9.155	9.464	9.904	10.327	10.859	11.246	11.410	11.290	11.387	11.264	11.089	10.982	10.606	11.293	10.191	9.567	9.585	9.751	10.394	13.048	17.527	13.612	12.596	12.354	12.434	12.572	12.989	13.708	12.895	12.860	12.970	13.228	15.146	15.611	14.801	14.820	14.813	16.842	15.536	15.036	14.984	16.140	16.722	18.415	15.098	15.071	15.426	14.444	16.574	15.053	17.261	15.153	14.728	14.922	100.000	10000000000.000	10000000000.000	10000000000.000	10000000000.000	10000000000.000	10000000000.000	10000000000.000	10000000000.000	10000000000.000	10000000000.000	10000000000.000	10000000000.000	10000000000.000	10000000000.000	10000000000.000	10000000000.000	10000000000.000	10000000000.000	10000000000.000	10000000000.000	10000000000.000	10000000000.000	10000000000.000	10000000000.000
10000000000.000	10000000000.000	10000000000.000	10000000000.000	10000000000.000	10000000000.000	10000000000.000	10000000000.000	10000000000.000	10000000000.000	10000000000.000	10000000000.000	10000000000.000	10000000000.000	10000000000.000	10000000000.000	10000000000.000	10000000000.000	10000000000.000	10000000000.000	10000000000.000	10000000000.000	10000000000.000	10000000000.000	5.127	11.014	11.869	8.117	18.176	20.067	20.666	20.720	20.689	20.887	20.621	19.872	18.941	18.707	18.767	18.769	18.755	18.814	18.299	16.640	15.254	14.935	14.348	14.430	14.881	14.773	14.454	13.680	13.047	12.556	12.351	12.339	12.700	12.496	12.582	12.495	12.352	12.211	12.299	13.173	11.701	8.111	8.020	7.821	7.903	8.174	8.243	8.237	8.427	8.623	8.819	9.096	9.193	9.495	10.556	10.243	11.983	19.340	12.638	8.304	7.545	7.202	7.157	7.820	8.458	16.298	11.235	11.651	15.036	11.824	14.687	19.377	16.228	10.671	13.790	9.711	9.490	9.705	9.764	8.892	9.015	10.677	12.384	10.582	9.622	10.624	10.016	9.271	9.812	10.265	10.759	10.944	11.249	11.426	11.783	11.726	12.241	12.085	11.995	11.790	12.024	12.205	11.939	21.244	16.965	13.437	10.528	9.678	9.792	10.793	11.710	16.629	12.827	12.344	12.280	12.353	12.681	12.853	12.867	12.904	12.932	13.242	13.590	14.230	14.061	15.266	15.579	14.636	15.249	15.308	15.515	16.069	17.843	15.157	15.159	15.218	19.752	18.479	15.032	14.778	15.100	16.666	15.069	100.000	10000000000.000	10000000000.000	10000000000.000	10000000000.000	10000000000.000	10000000000.000	10000000000.000	10000000000.000	10000000000.000	10000000000.000	10000000000.000	10000000000.000	10000000000.000	10000000000.000	10000000000.000	10000000000.000	10000000000.000	10000000000.000	10000000000.000	10000000000.000	10000000000.000	10000000000.000	10000000000.000	10000000000.000
10000000000.000	10000000000.000	10000000000.000	10000000000.000	10000000000.000	10000000000.000	10000000000.000	10000000000.000	10000000000.000	10000000000.000	10000000000.000	10000000000.000	10000000000.000	10000000000.000	10000000000.000	10000000000.000	10000000000.000	10000000000.000	10000000000.000	10000000000.000	10000000000.000	10000000000.000	10000000000.000	10000000000.000	5.078	9.886	5.722	8.033	16.722	19.081	20.133	21.025	21.412	21.308	21.032	20.594	19.270	18.678	18.571	18.549	18.697	18.451	17.395	15.313	14.781	14.466	13.769	13.769	13.864	13.944	13.618	13.334	13.596	12.631	12.359	12.418	12.419	12.496	12.496	12.599	12.295	11.970	12.106	12.438	15.451	8.275	7.974	7.659	7.963	8.113	8.190	8.276	8.467	8.557	8.751	8.905	9.117	9.242	9.419	10.471	13.293	17.999	18.294	16.216	15.559	10.458	8.667	7.259	7.468	8.097	8.436	8.611	8.912	9.243	9.804	16.127	13.078	13.286	9.369	8.597	8.446	8.519	8.625	8.307	8.395	8.476	8.862	9.725	9.415	9.507	10.108	10.302	10.562	10.846	11.137	11.326	11.453	11.356	11.534	12.423	11.924	12.208	11.828	12.384	12.455	13.013	14.635	16.240	22.798	12.406	14.194	12.273	9.819	11.305	10.010	11.227	14.721	14.423	12.381	12.388	12.552	12.628	12.976	13.705	13.110	13.136	13.180	13.483	13.786	13.779	13.909	13.914	14.025	14.106	15.050	19.232	18.968	15.255	16.449	16.032	16.626	16.237	17.346	15.966	17.129	15.071	14.723	100.000	10000000000.000	10000000000.000	10000000000.000	10000000000.000	10000000000.000	10000000000.000	10000000000.000	10000000000.000	10000000000.000	10000000000.000	10000000000.000	10000000000.000	10000000000.000	10000000000.000	10000000000.000	10000000000.000	10000000000.000	10000000000.000	10000000000.000	10000000000.000	10000000000.000	10000000000.000	10000000000.000	10000000000.000
10000000000.000	10000000000.000	10000000000.000	10000000000.000	10000000000.000	10000000000.000	10000000000.000	10000000000.000	10000000000.000	10000000000.000	10000000000.000	10000000000.000	10000000000.000	10000000000.000	10000000000.000	10000000000.000	10000000000.000	10000000000.000	10000000000.000	10000000000.000	10000000000.000	10000000000.000	10000000000.000	10000000000.000	5.065	5.104	6.548	8.504	19.613	21.696	20.386	21.263	21.414	21.346	21.210	20.976	19.082	18.301	18.273	18.291	18.345	18.127	16.569	14.569	14.392	14.061	13.317	13.135	13.054	13.081	12.947	12.743	12.780	12.915	12.607	12.457	12.330	12.307	12.581	12.492	12.268	11.974	12.253	12.017	12.052	8.175	7.894	7.583	7.874	8.089	8.128	8.281	8.394	8.502	8.671	8.809	9.033	9.192	9.269	9.419	10.113	11.255	19.885	21.117	23.065	17.427	12.004	8.195	7.295	7.267	7.340	7.554	7.833	8.016	8.112	8.470	8.594	8.498	8.223	8.091	8.137	8.436	8.379	8.568	8.613	8.597	8.905	9.153	9.754	9.957	10.401	10.557	10.712	11.238	11.652	12.685	11.418	11.708	11.588	11.808	11.775	12.069	11.849	11.972	11.998	12.480	15.177	19.387	17.369	11.810	13.090	14.595	14.437	11.858	10.272	9.809	10.153	11.447	12.294	16.531	15.592	12.846	12.965	12.808	13.246	13.600	13.624	14.967	17.057	13.525	14.090	13.960	13.878	14.180	19.759	24.957	19.131	16.216	14.889	15.372	23.042	18.719	17.333	19.197	16.200	18.840	15.743	100.000	10000000000.000	10000000000.000	10000000000.000	10000000000.000	10000000000.000	10000000000.000	10000000000.000	10000000000.000	10000000000.000	10000000000.000	10000000000.000	10000000000.000	10000000000.000	10000000000.000	10000000000.000	10000000000.000	10000000000.000	10000000000.000	10000000000.000	10000000000.000	10000000000.000	10000000000.000	10000000000.000	10000000000.000
10000000000.000	10000000000.000	10000000000.000	10000000000.000	10000000000.000	10000000000.000	10000000000.000	10000000000.000	10000000000.000	10000000000.000	10000000000.000	10000000000.000	10000000000.000	10000000000.000	10000000000.000	10000000000.000	10000000000.000	10000000000.000	10000000000.000	10000000000.000	10000000000.000	10000000000.000	10000000000.000	10000000000.000	5.579	5.152	5.173	8.793	18.310	21.733	20.509	21.517	21.481	21.395	21.315	20.867	18.749	17.880	18.170	18.103	18.076	17.593	15.920	14.116	14.055	13.763	12.969	12.661	12.415	12.193	12.151	12.598	12.720	12.876	12.937	12.541	12.428	12.241	12.512	12.222	12.173	12.042	11.993	12.036	11.805	9.179	8.004	8.032	7.932	8.134	8.170	8.316	8.389	8.496	8.607	8.753	8.908	9.104	9.234	9.434	9.483	9.635	10.858	12.893	21.755	24.544	20.650	9.786	8.535	8.027	7.640	7.804	7.951	7.834	7.735	7.567	7.603	7.881	7.742	8.064	10.274	10.162	11.445	10.101	10.038	9.298	9.632	10.043	10.409	10.393	10.474	10.795	11.023	11.575	13.656	11.736	11.400	11.426	11.589	11.578	11.702	11.854	11.840	11.895	11.898	11.903	12.197	12.846	19.989	13.542	12.194	12.702	13.565	14.985	18.430	11.288	10.211	9.991	10.425	16.265	15.943	11.979	12.685	12.348	13.630	17.761	18.416	18.262	17.878	18.774	19.389	15.443	16.901	17.652	17.300	15.021	13.289	19.130	17.080	14.013	13.380	15.359	13.276	15.460	15.739	19.787	15.726	100.000	10000000000.000	10000000000.000	10000000000.000	10000000000.000	10000000000.000	10000000000.000	10000000000.000	10000000000.000	10000000000.000	10000000000.000	10000000000.000	10000000000.000	10000000000.000	10000000000.000	10000000000.000	10000000000.000	10000000000.000	10000000000.000	10000000000.000	10000000000.000	10000000000.000	10000000000.000	10000000000.000	10000000000.000
10000000000.000	10000000000.000	10000000000.000	10000000000.000	10000000000.000	10000000000.000	10000000000.000	10000000000.000	10000000000.000	10000000000.000	10000000000.000	10000000000.000	10000000000.000	10000000000.000	10000000000.000	10000000000.000	10000000000.000	10000000000.000	10000000000.000	10000000000.000	10000000000.000	10000000000.000	10000000000.000	10000000000.000	5.496	7.381	5.237	8.584	19.131	22.170	20.833	21.663	22.079	25.447	21.464	20.294	18.281	17.991	18.165	18.090	18.033	17.332	15.580	13.903	13.828	13.407	12.655	12.417	12.122	11.876	11.654	11.817	12.239	12.279	12.431	12.423	12.457	12.432	12.107	12.189	12.209	12.068	11.971	13.475	11.835	9.012	7.972	8.298	8.053	8.099	8.206	8.275	8.382	8.429	8.536	8.765	8.854	8.929	9.109	9.301	9.397	9.544	9.657	10.257	11.573	13.366	12.552	10.205	9.988	10.164	10.383	10.862	19.044	12.163	12.395	9.860	9.566	11.330	10.215	9.452	11.360	14.161	15.382	20.336	11.073	10.453	10.830	10.732	10.384	10.630	11.079	11.302	11.519	13.576	11.700	13.889	11.146	11.184	11.441	11.541	11.548	11.762	11.807	11.884	11.793	11.907	11.985	12.356	14.382	24.864	13.405	12.278	12.667	14.154	16.724	18.706	16.964	11.394	10.396	10.374	10.272	10.202	10.530	10.419	10.395	10.804	12.125	12.011	13.268	14.163	16.016	12.281	12.451	11.990	11.280	11.190	11.248	11.730	11.730	11.715	11.774	11.647	11.593	11.527	11.193	11.412	11.776	12.043	10000000000.000	10000000000.000	10000000000.000	10000000000.000	10000000000.000	10000000000.000	10000000000.000	10000000000.000	10000000000.000	10000000000.000	10000000000.000	10000000000.000	10000000000.000	10000000000.000	10000000000.000	10000000000.000	10000000000.000	10000000000.000	10000000000.000	10000000000.000	10000000000.000	10000000000.000	10000000000.000	10000000000.000
10000000000.000	10000000000.000	10000000000.000	10000000000.000	10000000000.000	10000000000.000	10000000000.000	10000000000.000	10000000000.000	10000000000.000	10000000000.000	10000000000.000	10000000000.000	10000000000.000	10000000000.000	10000000000.000	10000000000.000	10000000000.000	10000000000.000	10000000000.000	10000000000.000	10000000000.000	10000000000.000	10000000000.000	5.006	4.820	5.358	10.570	19.949	21.191	21.209	24.612	25.453	25.175	21.336	19.532	18.195	18.068	18.134	18.146	17.893	17.316	15.242	13.698	13.476	13.169	12.493	12.259	11.959	11.723	11.643	11.602	11.677	11.857	12.012	12.053	12.142	12.349	12.631	12.261	12.084	11.748	11.617	11.593	11.175	8.445	7.797	7.923	8.050	8.106	8.231	8.307	8.365	8.338	8.433	8.588	8.791	8.928	9.049	9.176	9.361	9.404	9.475	9.624	9.472	9.741	10.109	10.854	10.874	10.783	11.338	20.158	26.966	22.719	22.010	19.681	15.922	10.598	10.615	13.371	12.746	12.894	12.302	12.854	11.017	10.783	10.791	10.849	11.162	10.708	10.799	10.976	10.996	10.924	11.253	10.878	10.994	11.136	11.204	11.385	11.435	11.607	11.751	11.752	11.837	11.917	11.988	12.228	13.311	25.446	20.215	14.530	12.752	12.594	16.259	12.981	16.913	18.158	18.180	16.501	12.055	10.807	10.598	10.255	10.288	10.262	10.631	10.394	10.535	10.752	10.930	10.789	10.785	10.800	10.844	10.961	10.918	11.015	10.796	11.052	10.885	10.776	10.899	10.843	10.894	10.942	11.038	11.180	10000000000.000	10000000000.000	10000000000.000	10000000000.000	10000000000.000	10000000000.000	10000000000.000	10000000000.000	10000000000.000	10000000000.000	10000000000.000	10000000000.000	10000000000.000	10000000000.000	10000000000.000	10000000000.000	10000000000.000	10000000000.000	10000000000.000	10000000000.000	10000000000.000	10000000000.000	10000000000.000	10000000000.000
10000000000.000	10000000000.000	10000000000.000	10000000000.000	10000000000.000	10000000000.000	10000000000.000	10000000000.000	10000000000.000	10000000000.000	10000000000.000	10000000000.000	10000000000.000	10000000000.000	10000000000.000	10000000000.000	10000000000.000	10000000000.000	10000000000.000	10000000000.000	10000000000.000	10000000000.000	10000000000.000	10000000000.000	7.439	5.935	5.901	12.436	19.813	21.298	20.226	22.694	22.325	24.366	20.574	18.683	17.887	18.170	18.218	18.198	18.213	17.642	15.591	13.521	13.378	12.894	12.358	12.198	11.965	11.756	11.682	11.623	11.533	11.494	11.676	11.789	11.854	12.407	12.142	11.822	11.425	11.166	11.328	11.412	9.671	7.835	7.716	7.940	8.054	8.059	8.230	8.321	8.336	8.417	8.470	8.495	8.562	8.736	8.994	9.160	9.154	9.289	9.432	9.463	9.327	9.513	9.644	9.713	9.827	10.115	12.408	23.657	25.040	27.392	23.132	27.140	12.990	10.471	10.434	10.699	10.986	10.624	10.795	10.851	10.844	10.698	10.741	11.206	10.623	10.512	10.544	10.575	10.692	10.562	10.657	10.642	10.861	11.147	11.327	11.418	11.504	11.612	11.718	11.799	11.953	12.047	12.222	12.339	12.349	12.952	15.527	18.500	15.677	23.417	22.001	18.461	17.437	14.278	15.619	18.797	17.805	16.493	20.653	19.334	13.056	12.355	10.952	18.245	16.988	15.063	11.735	11.024	10.581	10.450	10.628	10.534	10.730	10.745	10.775	10.833	10.912	10.730	11.064	11.198	11.256	11.312	11.549	11.457	10000000000.000	10000000000.000	10000000000.000	10000000000.000	10000000000.000	10000000000.000	10000000000.000	10000000000.000	10000000000.000	10000000000.000	10000000000.000	10000000000.000	10000000000.000	10000000000.000	10000000000.000	10000000000.000	10000000000.000	10000000000.000	10000000000.000	10000000000.000	10000000000.000	10000000000.000	10000000000.000	10000000000.000
10000000000.000	10000000000.000	10000000000.000	10000000000.000	10000000000.000	10000000000.000	10000000000.000	10000000000.000	10000000000.000	10000000000.000	10000000000.000	10000000000.000	10000000000.000	10000000000.000	10000000000.000	10000000000.000	10000000000.000	10000000000.000	10000000000.000	10000000000.000	10000000000.000	10000000000.000	10000000000.000	10000000000.000	11.908	7.690	7.187	16.858	19.710	19.892	19.913	21.717	21.728	21.237	19.481	18.537	18.046	18.203	18.376	18.343	18.240	17.775	15.672	13.399	13.108	12.686	12.404	12.246	11.955	11.860	11.657	11.567	11.452	11.242	11.286	11.407	11.649	11.627	11.459	11.459	11.007	10.931	13.206	11.369	8.629	7.632	7.715	7.939	7.682	8.127	8.090	8.201	8.363	8.434	8.462	8.570	8.635	8.607	8.745	8.892	8.966	9.087	9.191	9.302	9.446	9.223	9.360	9.498	9.596	9.690	10.069	11.205	13.458	13.972	21.558	19.655	11.490	10.542	10.550	10.382	10.395	10.386	10.439	10.514	10.512	10.719	10.568	10.389	10.285	10.229	10.250	10.367	10.544	10.564	10.592	10.747	10.858	11.067	11.385	11.390	11.353	11.650	11.771	11.747	11.841	11.990	12.122	12.377	12.256	12.514	12.686	12.318	13.123	15.008	16.452	24.368	23.145	22.509	13.769	14.551	21.220	13.316	14.283	14.138	13.279	13.640	15.836	18.222	22.602	22.489	20.885	21.064	13.595	12.193	12.659	11.679	11.696	11.633	11.722	12.653	12.269	13.337	12.753	15.822	12.679	19.699	15.556	13.223	10000000000.000	10000000000.000	10000000000.000	10000000000.000	10000000000.000	10000000000.000	10000000000.000	10000000000.000	10000000000.000	10000000000.000	10000000000.000	10000000000.000	10000000000.000	10000000000.000	10000000000.000	10000000000.000	10000000000.000	10000000000.000	10000000000.000	10000000000.000	10000000000.000	10000000000.000	10000000000.000	10000000000.000
10000000000.000	10000000000.000	10000000000.000	10000000000.000	10000000000.000	10000000000.000	10000000000.000	10000000000.000	10000000000.000	10000000000.000	10000000000.000	10000000000.000	10000000000.000	10000000000.000	10000000000.000	10000000000.000	10000000000.000	10000000000.000	10000000000.000	10000000000.000	10000000000.000	10000000000.000	10000000000.000	10000000000.000	24.606	12.706	10.226	11.151	14.165	18.309	20.547	21.516	21.131	20.035	18.703	18.218	18.155	18.262	18.380	18.607	18.621	17.681	15.441	13.236	12.959	12.628	12.360	12.173	11.940	11.723	11.527	11.260	11.027	10.993	10.977	11.069	11.215	11.180	11.059	10.739	10.745	10.809	10.901	9.382	7.880	7.559	7.708	7.839	8.075	8.250	8.312	8.172	8.216	8.376	8.443	8.463	8.552	8.616	8.800	8.832	8.906	8.967	9.116	9.143	9.376	9.346	9.380	9.388	9.496	9.626	9.658	9.689	9.949	10.171	10.413	10.292	9.983	10.035	10.364	10.621	10.906	11.247	11.172	11.092	11.262	11.224	11.133	10.943	10.826	10.765	11.067	11.300	11.630	11.469	11.507	11.552	11.664	11.710	12.185	12.495	12.403	12.424	12.579	12.590	12.360	12.161	11.946	12.179	12.327	12.585	12.544	12.133	12.391	12.749	12.993	13.373	13.768	13.644	16.028	15.461	18.718	19.542	13.665	13.365	13.546	13.671	13.688	13.946	13.468	16.538	15.908	22.585	14.938	14.032	13.953	13.770	13.443	13.349	13.279	13.190	13.262	13.444	13.504	13.562	13.777	14.166	14.303	14.251	10000000000.000	10000000000.000	10000000000.000	10000000000.000	10000000000.000	10000000000.000	10000000000.000	10000000000.000	10000000000.000	10000000000.000	10000000000.000	10000000000.000	10000000000.000	10000000000.000	10000000000.000	10000000000.000	10000000000.000	10000000000.000	10000000000.000	10000000000.000	10000000000.000	10000000000.000	10000000000.000	10000000000.000
10000000000.000	10000000000.000	10000000000.000	10000000000.000	10000000000.000	10000000000.000	10000000000.000	10000000000.000	10000000000.000	10000000000.000	10000000000.000	10000000000.000	10000000000.000	10000000000.000	10000000000.000	10000000000.000	10000000000.000	10000000000.000	10000000000.000	10000000000.000	10000000000.000	10000000000.000	10000000000.000	10000000000.000	18.974	22.913	14.023	14.496	17.103	19.437	21.322	21.268	20.539	19.414	18.535	18.089	18.302	18.271	18.380	18.685	18.661	17.540	15.403	13.187	12.944	12.679	12.402	12.308	12.119	11.858	11.593	11.283	11.069	10.909	10.812	10.767	10.846	10.799	10.756	10.680	10.536	10.364	9.933	8.342	7.654	7.590	7.737	7.935	8.095	8.169	8.198	7.903	8.204	8.343	8.425	8.536	8.499	8.660	8.741	8.754	8.964	8.893	9.000	9.052	9.294	9.328	9.162	9.269	9.349	9.430	9.581	9.624	9.648	9.670	9.759	9.751	9.812	10.008	10.028	9.978	9.826	9.978	10.112	10.119	10.093	11.116	10.116	10.213	10.261	10.413	10.497	10.561	10.621	10.735	10.939	11.064	11.023	11.174	11.231	11.032	11.246	11.361	11.516	11.749	12.016	12.198	12.269	12.737	13.103	13.182	13.149	12.819	12.251	12.423	12.679	12.932	13.117	13.024	12.961	13.027	13.294	13.316	13.396	13.411	13.281	13.657	13.696	13.679	13.773	13.801	13.909	19.088	18.359	14.959	14.150	14.160	14.105	13.952	14.103	14.369	14.106	15.132	15.585	14.937	15.329	15.637	15.214	15.138	10000000000.000	10000000000.000	10000000000.000	10000000000.000	10000000000.000	10000000000.000	10000000000.000	10000000000.000	10000000000.000	10000000000.000	10000000000.000	10000000000.000	10000000000.000	10000000000.000	10000000000.000	10000000000.000	10000000000.000	10000000000.000	10000000000.000	10000000000.000	10000000000.000	10000000000.000	10000000000.000	10000000000.000
10000000000.000	10000000000.000	10000000000.000	10000000000.000	10000000000.000	10000000000.000	10000000000.000	10000000000.000	10000000000.000	10000000000.000	10000000000.000	10000000000.000	10000000000.000	10000000000.000	10000000000.000	10000000000.000	10000000000.000	10000000000.000	10000000000.000	10000000000.000	10000000000.000	10000000000.000	10000000000.000	10000000000.000	10.192	14.500	15.656	17.295	19.936	20.828	21.427	21.666	23.324	19.419	18.600	18.315	18.339	18.267	18.404	18.565	18.440	17.234	15.227	13.336	13.026	12.677	12.679	12.780	12.778	12.541	12.144	11.376	11.149	10.882	10.647	10.546	10.588	10.588	10.570	10.324	9.964	9.677	8.845	7.423	7.556	7.613	7.622	7.904	8.065	8.159	8.221	8.313	8.441	8.520	8.371	8.425	8.530	8.594	8.656	8.673	8.707	8.838	8.852	8.924	9.126	9.203	9.120	9.185	9.245	9.331	9.414	9.470	9.515	9.470	9.540	9.638	9.755	9.892	10.024	9.971	9.990	10.038	9.911	9.965	10.031	9.961	9.800	9.902	9.958	10.045	10.175	10.206	10.240	10.478	10.609	10.773	10.849	10.868	11.072	11.386	11.127	11.181	11.464	11.398	11.561	11.620	11.722	12.122	12.428	12.569	12.724	12.737	12.487	13.035	13.391	13.080	12.881	12.590	12.318	12.362	12.569	12.827	13.159	13.353	13.398	13.312	13.475	13.278	13.435	13.362	13.521	13.644	14.008	13.781	13.965	17.321	17.931	15.673	22.290	21.417	14.365	23.019	23.005	15.002	16.654	15.633	14.804	14.706	10000000000.000	10000000000.000	10000000000.000	10000000000.000	10000000000.000	10000000000.000	10000000000.000	10000000000.000	10000000000.000	10000000000.000	10000000000.000	10000000000.000	10000000000.000	10000000000.000	10000000000.000	10000000000.000	10000000000.000	10000000000.000	10000000000.000	10000000000.000	10000000000.000	10000000000.000	10000000000.000	10000000000.000
10000000000.000	10000000000.000	10000000000.000	10000000000.000	10000000000.000	10000000000.000	10000000000.000	10000000000.000	10000000000.000	10000000000.000	10000000000.000	10000000000.000	10000000000.000	10000000000.000	10000000000.000	10000000000.000	10000000000.000	10000000000.000	10000000000.000	10000000000.000	10000000000.000	10000000000.000	10000000000.000	10000000000.000	9.454	14.040	16.965	19.742	20.511	20.329	20.132	20.104	21.972	19.001	18.410	18.274	18.415	18.357	18.456	18.499	17.744	16.600	14.712	13.245	13.136	12.889	13.023	13.104	13.144	12.974	12.558	11.692	11.009	10.821	10.528	10.428	10.396	10.379	10.260	9.917	9.583	9.351	8.434	7.852	7.643	7.598	7.687	7.826	7.879	8.141	8.203	8.240	8.320	8.399	8.180	8.462	8.579	8.642	8.633	8.726	8.653	8.768	8.788	8.737	8.969	9.108	9.163	8.991	9.120	9.255	9.294	9.314	9.305	9.363	9.487	9.490	11.490	9.843	9.908	9.874	10.030	10.012	10.023	10.053	10.062	10.069	9.775	9.738	9.834	9.886	10.078	10.148	10.238	10.427	10.526	10.509	10.635	10.607	10.767	11.090	11.535	11.560	11.576	11.536	11.504	11.739	12.003	12.207	12.213	12.441	12.558	12.583	12.651	11.934	12.401	12.806	13.033	13.449	13.375	13.050	12.540	12.397	12.752	13.072	13.146	13.166	13.250	13.378	13.451	13.487	13.476	13.437	13.349	13.403	13.629	13.691	13.707	13.858	14.219	13.736	13.706	14.101	14.176	14.356	14.399	14.385	14.558	14.913	10000000000.000	10000000000.000	10000000000.000	10000000000.000	10000000000.000	10000000000.000	10000000000.000	10000000000.000	10000000000.000	10000000000.000	10000000000.000	10000000000.000	10000000000.000	10000000000.000	10000000000.000	10000000000.000	10000000000.000	10000000000.000	10000000000.000	10000000000.000	10000000000.000	10000000000.000	10000000000.000	10000000000.000
100.000	100.000	100.000	100.000	100.000	100.000	100.000	100.000	100.000	100.000	100.000	100.000	100.000	100.000	100.000	100.000	100.000	100.000	100.000	100.000	100.000	100.000	100.000	100.000	100.000	100.000	100.000	100.000	100.000	100.000	100.000	100.000	100.000	100.000	100.000	100.000	100.000	100.000	100.000	100.000	100.000	100.000	100.000	100.000	100.000	100.000	100.000	100.000	100.000	100.000	100.000	100.000	100.000	100.000	100.000	100.000	100.000	100.000	100.000	100.000	100.000	100.000	100.000	100.000	100.000	100.000	100.000	100.000	100.000	100.000	100.000	100.000	100.000	100.000	100.000	100.000	100.000	100.000	100.000	100.000	100.000	100.000	100.000	100.000	100.000	100.000	100.000	100.000	100.000	100.000	100.000	100.000	100.000	100.000	100.000	100.000	100.000	100.000	100.000	100.000	100.000	100.000	100.000	100.000	100.000	100.000	100.000	100.000	100.000	100.000	100.000	100.000	100.000	100.000	100.000	100.000	100.000	100.000	100.000	100.000	100.000	100.000	100.000	100.000	100.000	100.000	100.000	100.000	100.000	100.000	100.000	100.000	100.000	100.000	100.000	100.000	100.000	100.000	100.000	100.000	100.000	100.000	100.000	100.000	100.000	100.000	100.000	100.000	100.000	100.000	100.000	100.000	100.000	100.000	100.000	100.000	100.000	100.000	100.000	100.000	100.000	100.000	100.000	100.000	100.000	100.000	100.000	100.000	100.000	100.000	100.000	100.000	100.000	100.000	100.000	100.000	100.000	100.000	100.000	100.000	100.000	100.000	100.000	100.000	100.000	100.000	100.000	100.000	100.000	100.000	100.000	100.000
100.000	100.000	100.000	100.000	100.000	100.000	100.000	100.000	100.000	100.000	100.000	100.000	100.000	100.000	100.000	100.000	100.000	100.000	100.000	100.000	100.000	100.000	100.000	100.000	100.000	100.000	100.000	100.000	100.000	100.000	100.000	100.000	100.000	100.000	100.000	100.000	100.000	100.000	100.000	100.000	100.000	100.000	100.000	100.000	100.000	100.000	100.000	100.000	100.000	100.000	100.000	100.000	100.000	100.000	100.000	100.000	100.000	100.000	100.000	100.000	100.000	100.000	100.000	100.000	100.000	100.000	100.000	100.000	100.000	100.000	100.000	100.000	100.000	100.000	100.000	100.000	100.000	100.000	100.000	100.000	100.000	100.000	100.000	100.000	100.000	100.000	100.000	100.000	100.000	100.000	100.000	100.000	100.000	100.000	100.000	100.000	100.000	100.000	100.000	100.000	100.000	100.000	100.000	100.000	100.000	100.000	100.000	100.000	100.000	100.000	100.000	100.000	100.000	100.000	100.000	100.000	100.000	100.000	100.000	100.000	100.000	100.000	100.000	100.000	100.000	100.000	100.000	100.000	100.000	100.000	100.000	100.000	100.000	100.000	100.000	100.000	100.000	100.000	100.000	100.000	100.000	100.000	100.000	100.000	100.000	100.000	100.000	100.000	100.000	100.000	100.000	100.000	100.000	100.000	100.000	100.000	100.000	100.000	100.000	100.000	100.000	100.000	100.000	100.000	100.000	100.000	100.000	100.000	100.000	100.000	100.000	100.000	100.000	100.000	100.000	100.000	100.000	100.000	100.000	100.000	100.000	100.000	100.000	100.000	100.000	100.000	100.000	100.000	100.000	100.000	100.000	100.000
100.000	100.000	100.000	100.000	100.000	100.000	100.000	100.000	100.000	100.000	100.000	100.000	100.000	100.000	100.000	100.000	100.000	100.000	100.000	100.000	100.000	100.000	100.000	100.000	100.000	100.000	100.000	100.000	100.000	100.000	100.000	100.000	100.000	100.000	100.000	100.000	100.000	100.000	100.000	100.000	100.000	100.000	100.000	100.000	100.000	100.000	100.000	100.000	100.000	100.000	100.000	100.000	100.000	100.000	100.000	100.000	100.000	100.000	100.000	100.000	100.000	100.000	100.000	100.000	100.000	100.000	100.000	100.000	100.000	100.000	100.000	100.000	100.000	100.000	100.000	100.000	100.000	100.000	100.000	100.000	100.000	100.000	100.000	100.000	100.000	100.000	100.000	100.000	100.000	100.000	100.000	100.000	100.000	100.000	100.000	100.000	100.000	100.000	100.000	100.000	100.000	100.000	100.000	100.000	100.000	100.000	100.000	100.000	100.000	100.000	100.000	100.000	100.000	100.000	100.000	100.000	100.000	100.000	100.000	100.000	100.000	100.000	100.000	100.000	100.000	100.000	100.000	100.000	100.000	100.000	100.000	100.000	100.000	100.000	100.000	100.000	100.000	100.000	100.000	100.000	100.000	100.000	100.000	100.000	100.000	100.000	100.000	100.000	100.000	100.000	100.000	100.000	100.000	100.000	100.000	100.000	100.000	100.000	100.000	100.000	100.000	100.000	100.000	100.000	100.000	100.000	100.000	100.000	100.000	100.000	100.000	100.000	100.000	100.000	100.000	100.000	100.000	100.000	100.000	100.000	100.000	100.000	100.000	100.000	100.000	100.000	100.000	100.000	100.000	100.000	100.000	100.000
100.000	100.000	100.000	100.000	100.000	100.000	100.000	100.000	100.000	100.000	100.000	100.000	100.000	100.000	100.000	100.000	100.000	100.000	100.000	100.000	100.000	100.000	100.000	100.000	100.000	100.000	100.000	100.000	100.000	100.000	100.000	100.000	100.000	100.000	100.000	100.000	100.000	100.000	100.000	100.000	100.000	100.000	100.000	100.000	100.000	100.000	100.000	100.000	100.000	100.000	100.000	100.000	100.000	100.000	100.000	100.000	100.000	100.000	100.000	100.000	100.000	100.000	100.000	100.000	100.000	100.000	100.000	100.000	100.000	100.000	100.000	100.000	100.000	100.000	100.000	100.000	100.000	100.000	100.000	100.000	100.000	100.000	100.000	100.000	100.000	100.000	100.000	100.000	100.000	100.000	100.000	100.000	100.000	100.000	100.000	100.000	100.000	100.000	100.000	100.000	100.000	100.000	100.000	100.000	100.000	100.000	100.000	100.000	100.000	100.000	100.000	100.000	100.000	100.000	100.000	100.000	100.000	100.000	100.000	100.000	100.000	100.000	100.000	100.000	100.000	100.000	100.000	100.000	100.000	100.000	100.000	100.000	100.000	100.000	100.000	100.000	100.000	100.000	100.000	100.000	100.000	100.000	100.000	100.000	100.000	100.000	100.000	100.000	100.000	100.000	100.000	100.000	100.000	100.000	100.000	100.000	100.000	100.000	100.000	100.000	100.000	100.000	100.000	100.000	100.000	100.000	100.000	100.000	100.000	100.000	100.000	100.000	100.000	100.000	100.000	100.000	100.000	100.000	100.000	100.000	100.000	100.000	100.000	100.000	100.000	100.000	100.000	100.000	100.000	100.000	100.000	100.000
100.000	100.000	100.000	100.000	100.000	100.000	100.000	100.000	100.000	100.000	100.000	100.000	100.000	100.000	100.000	100.000	100.000	100.000	100.000	100.000	100.000	100.000	100.000	100.000	100.000	100.000	100.000	100.000	100.000	100.000	100.000	100.000	100.000	100.000	100.000	100.000	100.000	100.000	100.000	100.000	100.000	100.000	100.000	100.000	100.000	100.000	100.000	100.000	100.000	100.000	100.000	100.000	100.000	100.000	100.000	100.000	100.000	100.000	100.000	100.000	100.000	100.000	100.000	100.000	100.000	100.000	100.000	100.000	100.000	100.000	100.000	100.000	100.000	100.000	100.000	100.000	100.000	100.000	100.000	100.000	100.000	100.000	100.000	100.000	100.000	100.000	100.000	100.000	100.000	100.000	100.000	100.000	100.000	100.000	100.000	100.000	100.000	100.000	100.000	100.000	100.000	100.000	100.000	100.000	100.000	100.000	100.000	100.000	100.000	100.000	100.000	100.000	100.000	100.000	100.000	100.000	100.000	100.000	100.000	100.000	100.000	100.000	100.000	100.000	100.000	100.000	100.000	100.000	100.000	100.000	100.000	100.000	100.000	100.000	100.000	100.000	100.000	100.000	100.000	100.000	100.000	100.000	100.000	100.000	100.000	100.000	100.000	100.000	100.000	100.000	100.000	100.000	100.000	100.000	100.000	100.000	100.000	100.000	100.000	100.000	100.000	100.000	100.000	100.000	100.000	100.000	100.000	100.000	100.000	100.000	100.000	100.000	100.000	100.000	100.000	100.000	100.000	100.000	100.000	100.000	100.000	100.000	100.000	100.000	100.000	100.000	100.000	100.000	100.000	100.000	100.000	100.000
100.000	100.000	100.000	100.000	100.000	100.000	100.000	100.000	100.000	100.000	100.000	100.000	100.000	100.000	100.000	100.000	100.000	100.000	100.000	100.000	100.000	100.000	100.000	100.000	100.000	100.000	100.000	100.000	100.000	100.000	100.000	100.000	100.000	100.000	100.000	100.000	100.000	100.000	100.000	100.000	100.000	100.000	100.000	100.000	100.000	100.000	100.000	100.000	100.000	100.000	100.000	100.000	100.000	100.000	100.000	100.000	100.000	100.000	100.000	100.000	100.000	100.000	100.000	100.000	100.000	100.000	100.000	100.000	100.000	100.000	100.000	100.000	100.000	100.000	100.000	100.000	100.000	100.000	100.000	100.000	100.000	100.000	100.000	100.000	100.000	100.000	100.000	100.000	100.000	100.000	100.000	100.000	100.000	100.000	100.000	100.000	100.000	100.000	100.000	100.000	100.000	100.000	100.000	100.000	100.000	100.000	100.000	100.000	100.000	100.000	100.000	100.000	100.000	100.000	100.000	100.000	100.000	100.000	100.000	100.000	100.000	100.000	100.000	100.000	100.000	100.000	100.000	100.000	100.000	100.000	100.000	100.000	100.000	100.000	100.000	100.000	100.000	100.000	100.000	100.000	100.000	100.000	100.000	100.000	100.000	100.000	100.000	100.000	100.000	100.000	100.000	100.000	100.000	100.000	100.000	100.000	100.000	100.000	100.000	100.000	100.000	100.000	100.000	100.000	100.000	100.000	100.000	100.000	100.000	100.000	100.000	100.000	100.000	100.000	100.000	100.000	100.000	100.000	100.000	100.000	100.000	100.000	100.000	100.000	100.000	100.000	100.000	100.000	100.000	100.000	100.000	100.000
