ncols        192
nrows        38
xllcorner    1771145
yllcorner    5472184
cellsize     10.000000000000
NODATA_value  nan
999 999 999 999 999 999 999 999 999 999 999 999 8.6017793643181139629 8.4168270086954830589 6.2334517898802674907 5.9385978802690679856 5.3510619048108623019 6.4496446564158764758 6.0099651585420570399 7.4707543549637547287 6.923218735446175387 7.5664604621451223565 13.444489448663984987 11.849074669441526098 13.881376001891355898 24.183586474685597523 25.985577318764033095 11.749480315902989247 6.6979861742476867192 7.2397217720480817604 12.091689514723688248 7.5629108570976812942 7.1588305118784933967 8.2802239639432535512 10.748280395723835312 16.626208649065887357 12.548805052878114097 15.84482950768575904 18.123720699331251183 12.042049894052283321 14.868837802391896119 12.077272225246325377 13.08160693108992767 14.525501021842519123 4.5142435430536433927 4.2823736680562118906 4.0481021904015426216 4.3182343578375759208 5.3714992232425462504 5.7959167110747848994 6.5989798834773898406 6.4493400276320667075 6.6507109677059075281 7.5447348297375294024 6.1401061945717918533 5.6701191196210682932 5.9426076735031623244 6.2326520683775905596 7.4913212695504709515 7.7353510545228365558 7.3552963311763557286 9.3121570659054953012 8.3756092671224777746 7.6490994768958930905 7.955028281004418389 8.2302491649317435218 8.1759636010932172923 8.2942382719155318682 8.6286614441813842546 8.3541994490806850138 8.5287904335555442259 8.176511367067755387 6.8132827669311790686 7.9709301077309806516 9.6886248249614261852 11.137851926860834695 12.130425418427609685 12.264448987110204925 11.025548745136095619 9.1684856123507731951 8.2811861018323824624 8.3980902994088193481 9.3596053305158246616 27.832943611163322828 11.948677328695771038 8.1717934055850456332 8.0731681066788372192 6.505422320658301949 6.5117923956438721333 8.4257492443815671379 13.049390938662435602 13.519713867774195037 9.8405597653452776541 9.9519402083025099159 8.8628610447989650822 8.7154808322135597365 8.7829367049260849143 8.9691734493531996009 9.157193570477245359 9.5245016671283817544 10.383132435202266919 15.586705527739198374 13.759995874323086795 13.208947224697924483 10.97643842832655281 11.055731315671236459 9.9772379121855312434 11.030029273683997104 14.451771938461154932 12.161087686042563405 14.101466679393888981 13.081118690918694725 15.899355127102509755 14.596368813972064871 10.601429164065725885 10.149536637554566809 10.025424976855548564 10.130217364481985953 10.21361924270246746 10.302547597455390616 10.455732965875295548 10.563986721405276725 10.753940075916524677 12.488151214809329659 13.276634600180109658 12.909002149446912711 10.82614949971355145 15.59878754939970058 15.093349109816234233 11.866986109468200539 8.8735101749927967063 9.3762399561213829458 9.7726134365525112457 10.322971549444195816 10.629946551108767849 11.150182820111686155 11.509652503871002693 10.763427940149616902 10.58764607590197393 10.541375418707033873 10.692821013009989883 11.669802967567676433 11.278952741641466773 11.048432485045299956 10.843691960191991441 10.892552080740914633 999 999 999 999 999 999 999 999 999 999 999 999 999 999 999 999 999 999 999 999 999 999 999 999 999 999 999 999 999 999 999 999 999 999 999 999 999 999 999 999 999 999 999 999 999 999
999 999 999 999 999 999 999 999 999 999 999 999 999 7.0846015279553533617 7.8277816360411263119 5.2990233628961203038 5.4017908571025925468 5.4395724394193676332 6.3604746450260378765 6.990284078441762361 10.214353818685360409 13.961136729983831373 19.690515292530843539 27.487619232687336535 19.515609675923407451 19.796527768274774672 17.625346434041368582 7.9540001944275520174 10.769351057277154027 7.243487824844929257 7.2264380990273133776 15.009008468132771341 8.025355034015356992 13.941251678380838896 11.199814539420563264 10.614874603699115951 16.416602173160296019 18.301940993228175358 18.440347032451022358 17.768668825921576371 17.015797324428476145 18.237361829018084336 10.252924269168815385 6.3685477120321705158 4.3411615089222896913 4.0836074070402084146 4.1506022793639116841 5.2709072193429031827 5.6575266374378996304 7.9042248062319018231 7.1396163311375477889 7.2327662306087709965 6.0990671913503202717 8.0499998324277370898 5.8006777149631920665 5.6636767803201237825 5.6521628074245660045 6.8301770745571754873 7.5738385291232832586 8.7214301347138487586 6.938069605253294192 9.5587943680767608612 10.868358650277636812 9.8852555274216218351 8.1843400630668305951 8.3187987157481924072 8.4450844788796555207 9.2446296725817180828 10.043687437260745199 10.211222101807329921 10.932820278049778295 11.387329637511713898 10.7669218166486651 7.6951514522876145463 8.6360529742094858108 12.639099984378352914 12.251995137040244899 12.27538574699026519 11.826052848076795243 10.483462239653695391 9.4963675470532393774 8.3376169472338386157 8.6360115155264463027 10.55699109071301045 17.056643626280877157 13.314570017615116271 20.074303106275923625 9.1269493928508200753 12.16505154728909055 6.9598933850479909324 8.5674397825785444383 8.9977011566595006542 19.134577765917651249 23.78091605983606982 10.698109706994483048 8.860535169100186792 8.7309921103494954053 8.7698964506542207431 8.8135614906023587167 8.8808071855047661103 9.0065256755630773711 9.1675441977210994082 10.022881935248943108 10.891252292685736691 11.895905062120130324 10.875066866639215846 12.843837838833403353 12.440618672233464181 11.59495516886709332 12.984029961281285281 11.991724374126990327 10.446044886157816123 10.032606906095329791 9.9176661682529054787 9.934857254708244767 9.9260150324182045978 10.032827111502651718 10.079135739264170724 10.229634096121017706 10.312390860164912354 10.412101182940828537 10.527539871439980601 10.635149306373767431 14.298529517379902742 17.034528771923749702 11.648632499231201365 10.461490848629859229 15.244714632060908599 13.319954317145764833 10.147795047473396224 9.5836603378427742683 9.6810605071133792876 10.076074271736933596 10.350454351744470927 11.063073396750350952 10.954099222892688559 10.814494597297308331 10.694079690715685871 10.563267736002476482 10.670075433412282706 11.642951273560987246 11.140932198363975303 10.889269624626152222 10.798352876993158489 10.517865549119274959 999 999 999 999 999 999 999 999 999 999 999 999 999 999 999 999 999 999 999 999 999 999 999 999 999 999 999 999 999 999 999 999 999 999 999 999 999 999 999 999 999 999 999 999 999 999 999
999 999 999 999 999 999 999 999 999 999 999 999 999 999 5.845868608245948117 5.5575455314188273448 6.2082974904796710547 6.346869730873901716 6.3776974214464878798 7.7235394208888399348 10.751486170363875772 26.282974142485084457 25.5189570567909918 20.320081441173105219 21.898894991203508908 23.22843885623407445 14.437269965026777285 7.600283697612056244 15.944983475185473765 7.2770672131426676899 6.7702212664904113382 6.8367370689910131887 7.8788632981784800791 14.940144277216202084 16.818284998492796234 14.677316963589092325 13.260955641622347301 19.88721936132053969 15.16951630480895119 13.426558837911393596 10.602091407760051212 21.16670377093144495 10.696801598205912143 7.9377070588035154586 4.1825146151605414602 4.1159315448978448515 5.0514551328107195616 5.7982354424026736339 5.9598772861228148656 8.2472005285380642903 6.6400734004600643345 6.923683539550416377 7.7424567793095668833 5.7711680410862093993 5.7709721146486208099 5.61911441527542177 6.3623868948571988824 7.4337853326081466676 7.4200261226957051619 7.2706456606524181296 7.1499621615371129479 9.4497858396978706708 14.787260413179540208 16.260671572130089402 15.090166893781315594 12.735044910889552483 14.74431520817285346 14.18773414358368079 13.445270742326792757 13.363017197652201418 14.502095315702357325 14.579468265859086173 14.729614220332612362 13.20479346017638278 8.3175289173884010552 9.6673230238041334417 12.278399710222299035 12.324288897121032704 11.093264028835010393 10.253645951541274783 9.8533414213880146093 9.2069656550583260923 9.1216259004725550597 8.7091875166467982439 9.4415017456138574659 17.70999993691997787 22.660558773417360356 7.8748098840782301266 10.362166117760741813 6.8275661504726663509 6.7178746557800428363 11.895544280420319083 20.625290833270579327 27.495824603197064562 22.316592181081212232 9.7195886381774965201 8.7263776400694972324 8.7453016149780147259 8.7835069403827734646 8.8604752660247285689 8.9092905854124957443 8.9382232420503893167 8.9513741133126458749 9.0312851136643992334 9.0857662350931285289 9.1937652534796932002 9.2988166164999395136 9.3818872555239405386 9.6747460377486280692 9.6783268809444074066 9.6710814668805191729 9.6646596804467481689 9.7355620964108506854 9.8095655581817791102 9.8771819814022361328 9.9505595943821329996 10.01363478122107864 10.04159295702057797 10.17927807283919428 10.278048592057693611 10.413201001203416851 10.49293663718095182 10.557177571902196078 12.159338136554847409 17.634669426546274451 16.551679039839363838 10.509469147938579781 11.662192230892630462 9.2862589621601898671 8.6320334303821280031 9.1026435427646159582 9.391186281428359095 10.231892809498383201 10.684479438307048937 10.728624928639126423 10.714825683719741534 10.573745996319900087 10.505391170329984263 10.685241245045331127 11.631827713431768245 10.938078664040943977 10.678135327974898061 10.694329873065788306 10.598095583418244203 999 999 999 999 999 999 999 999 999 999 999 999 999 999 999 999 999 999 999 999 999 999 999 999 999 999 999 999 999 999 999 999 999 999 999 999 999 999 999 999 999 999 999 999 999 999 999 999
999 999 999 999 999 999 999 999 999 999 999 999 999 999 999 5.8992748334076239303 5.8160469759539710211 5.773227422462209546 8.2213995148252223544 25.16146529637721585 22.063773175277972882 18.943703160734035151 24.277097304802925493 15.794738754538911962 27.335525379178232441 18.433357462954639061 11.772981457775804515 20.607438945895896865 11.314147336776031239 6.9238125139912085615 6.7212867547500616539 6.4420962092734761484 6.3189145923032610241 7.0601556238200373627 11.426816785906346752 20.239247767874633865 6.1358882508192609251 12.622726401163218313 7.9421092120568719253 20.457336851577672121 19.515219576419120528 20.67532054656017948 18.025335384997315913 5.2022929191434776897 4.0670915564758525207 6.5405840297598922817 5.7225925134811337358 5.8602825499606341353 6.6281212373978961594 7.6967756252616590373 8.2279992742324861155 8.7166703517271297841 6.307812589436041506 5.6127460646729527838 5.5843137859201954498 6.1705373478984739677 7.5736003749494376081 7.180421011481358029 6.9376503539496603423 7.025496429418504718 7.2961791180910129384 10.767905463327307913 18.35861616159807852 21.374659757715935626 20.572047513607934377 23.684845021164221635 20.332161017911712264 20.471855607873447269 19.488767049553505473 17.774948774904110849 17.603986791929173705 18.525580767499391754 17.302797125168854819 18.274632415280557041 11.694307930215220637 8.2196754826913718261 11.197929874746817447 12.697878617492117215 10.92661470627581366 9.9248144103104287694 10.198964316872167757 10.429607721841172463 10.188433803460625882 10.370571048189338725 9.0331187126148151378 10.019467348160931763 15.013628828856667496 9.9108804225521964781 8.1371708691274289293 9.9066979627760609617 7.1390823719446920848 9.4705735752648738668 10.697852414338832716 18.325417288049809628 23.108673274879244275 10.689539689846494497 8.7530167633603337407 8.7336089902899480819 8.7412407717622375714 8.8316508232437964665 8.8562947409067991345 8.8756177199549934898 8.9807971191703650504 9.0320664980866318672 9.0948637635347733266 9.1565600001734139823 9.2205754567547373313 9.2787978061909353045 9.3793570667243795214 9.5093883306879511963 9.5730388511143651442 9.6391580477818603612 9.7389729624961489662 9.8040580424017989003 9.857778266299284553 9.972317723185645022 10.020438183661442011 10.088438239492912629 10.150522675522310578 10.282683194055742604 10.368742797332958006 10.389681362989636071 10.527325195553782322 10.792009136308054806 14.286387005135333439 10.834608058968752786 10.286964625182903887 8.7598805719379377877 8.405301755395022667 8.5231063479543429651 8.6095073783147473279 9.8583017789193299052 11.319439115383596928 11.03119059369180377 10.632189377997459445 10.525634263932575507 10.357419383928638368 10.238737220255053728 11.39442493387258537 10.77143789229598525 10.491866801187773817 10.450876693206915036 10.493187113874387961 999 999 999 999 999 999 999 999 999 999 999 999 999 999 999 999 999 999 999 999 999 999 999 999 999 999 999 999 999 999 999 999 999 999 999 999 999 999 999 999 999 999 999 999 999 999 999 999 999
999 999 999 999 999 999 999 999 999 999 999 999 999 999 999 999 6.073965235924631223 7.8860266115552946076 19.820418589459411152 23.177547455206056526 22.184261309339987633 25.542534930598669973 21.952977877996406875 18.679707625432925511 18.017883135511006287 15.058356137822745069 24.193947283148354188 20.371693178008879244 10.615789469902352948 6.9734361887490043941 7.0237322257344247944 7.7732624202493036947 6.2957308426042146721 5.6239392682784865585 6.0069607413252521511 13.716881575121034231 7.6609781049216216786 9.4853331595132974741 13.329684768775697634 26.60387473154757032 26.643645494410375107 21.812880234199678142 14.12818532818189432 5.3276401924777490038 4.0813828007944739085 5.2757254171700900258 5.6563000350396741567 5.6708759469545624299 8.7138418254845859678 6.462395111461215258 8.2500469245701602006 8.2617314024497972014 6.1233503826097335221 5.8933665971270325912 5.6573077255360484372 7.2756080271786069957 7.0542704770829836036 7.5160214046733386795 6.2774096869019446743 7.0366459008782102913 7.2504075127466292017 11.543372791317102255 19.148411375248649335 25.291950294014672096 26.354720170433207471 26.927409198618615704 26.820781281464327606 28.111128635077150761 25.248040219605588419 23.034127992531118423 22.138530695343160204 21.267361874642361386 19.981432973013717458 16.346466619112213436 14.757602388249136283 8.7575780087941339502 8.4696469502681956953 10.052308574955763021 9.998315737069757958 9.7256840188610045317 10.484836759758387359 10.065475082574915078 10.022728762930546154 10.16698106947316127 9.866048852634984101 10.725161789673400392 23.567610374753687807 22.051890033765747745 9.4107171081294946902 11.650684350875369688 6.7893368921351759937 7.0117284599393032707 10.020766797874333776 12.402563665333314447 9.3575003359785675627 9.0760844842459675874 8.7965563359635492446 8.7147649061449943275 8.8096090651089049572 8.8346302331193644619 8.8607344956981588524 8.9301260542932645592 8.9912106813348415812 9.0982884883599091097 9.1651572053289971365 9.2159041841346134305 9.2261483132031436583 9.2997808095146172747 9.3854461507985025293 9.5445169059589751726 9.5398945577986928868 9.6544247439958006396 9.7318533155605724261 9.8131188515898752911 9.8981666354865414093 9.9908844814497008713 10.042669733150489719 10.119801691059027604 10.193244594111948942 10.261015831669265452 10.342112158877766248 10.451427387162551597 10.67691502823048566 10.7031197784507075 10.410316368115307029 9.9542438988660890686 8.8086589710539051623 8.4906453535801649224 8.3510062882111473215 8.6570076233393908893 9.5699472297300900436 10.29876000681876036 10.884935760349014444 10.754006626435247185 10.615713757633884029 10.508221072532428764 10.297351737354023982 10.993874435204180173 10.689459851793429834 10.421378681897246921 10.163860058953360976 10.214295904316770702 999 999 999 999 999 999 999 999 999 999 999 999 999 999 999 999 999 999 999 999 999 999 999 999 999 999 999 999 999 999 999 999 999 999 999 999 999 999 999 999 999 999 999 999 999 999 999 999 999 999
999 999 999 999 999 999 999 999 999 999 999 999 999 999 999 999 999 16.614512717754550408 18.053180720221988054 23.740324037628319331 22.243803928872882381 20.811396592897391855 19.178879763122171909 18.354993037314606852 14.034101490290048275 18.136276517678243891 17.075637356814070245 20.274888649328925538 8.1145829478915452171 7.1651470965398598167 11.284001369745821464 17.739292698436610607 14.663162529620581864 5.7636466090508591265 5.1951452355479190715 5.9543146301185760905 5.7794878315927400436 5.4124034978194837109 6.8796613648075135572 14.199285897134494405 26.202055168764207593 25.676195349912777743 16.881278153513022744 4.9395334124621133043 4.1738333846230579738 5.1070583630306654044 5.6951677821393067447 17.321783952348344116 14.685042373530762916 10.013603192577793521 7.4357607717970903849 7.343292215813339574 5.8494659988352779578 5.8534990082059561445 5.857595550224438341 7.503890496225808171 6.8502485132602544127 8.0240000855642783506 6.9909191072580059156 6.9209741880704065409 6.7093244597983794364 12.44658655469824815 17.470808458262354179 23.449691625516880578 27.953320039196004387 29.55215347726186792 29.940106274063232661 30.136532977789606491 28.384630398189308664 27.282361972900403657 25.622920172138528017 24.428839872855995452 21.246830715328162142 19.769169212178972828 14.675333735277577674 10.51283810459701229 8.5468401823268163042 7.8873495356728335892 8.861559693909359936 9.3546281507753334949 9.1442073517233328772 9.4427013614968053901 9.806883025233146256 10.209261604478438556 10.331101337424366093 9.9361626707821280036 18.434649930081469904 22.843895989223295118 10.194999118202517252 7.7751082527835562175 12.161427972063508562 6.2356750651530203911 6.4719668922932189759 7.6843483396886496095 7.76499284869581885 13.171480103114321381 9.1275016788233998 8.8158719511252670031 8.8251110792617435408 8.8464253111895363446 8.8160232884541063214 8.924010738705291601 8.9632225803712763934 9.0614886280002142627 9.1613489515532702256 9.2153853432161820791 9.2408836363457123042 9.2879105272793527348 9.4059403860272414732 9.5935138024697046433 9.6142106094379116144 9.7055071678464681639 9.7852922646015763064 9.8569506810227398574 9.944434395728471543 10.037309966030608877 10.092859369546346215 10.156585489038693737 10.170891912552534109 10.279088512977871517 10.434608776134668418 10.688633152081601807 12.201805649066491455 12.781778771781180382 9.9433281113703504417 9.5647931529457661526 8.6562303330768237686 8.4263639910695182778 8.8312092552473551166 13.423486781660086464 11.108337863625235897 10.786397025437615582 11.310536533501169387 14.001712002391041523 10.590458498957632472 10.328982483026111439 11.113600819553685284 10.643426457631802506 10.303762612466000448 10.110520553785027786 10.152112971444426037 999 999 999 999 999 999 999 999 999 999 999 999 999 999 999 999 999 999 999 999 999 999 999 999 999 999 999 999 999 999 999 999 999 999 999 999 999 999 999 999 999 999 999 999 999 999 999 999 999 999 999
999 999 999 999 999 999 999 999 999 999 999 999 999 999 999 999 999 999 24.244342548096717849 16.506476519434400529 20.912576159097106654 25.160686020199658941 11.866000085295624444 16.630682112981190812 23.044985498188321316 19.487755887602212113 19.084498538299179415 11.203553812755172814 7.4168470832191939479 7.6169745960403787421 24.979634624586491753 23.299599028724561123 21.73025358307908661 8.5228458871429406685 5.2406211613076898459 4.8155399964464375984 5.0106499684637579861 5.248128624491222638 5.5038708854348472599 6.1524179297435370728 16.455044129791595253 21.101824955006776463 19.368420366134373012 4.3888116897098194968 4.5047703453491534376 6.0363414891492812586 5.3240428685745015969 17.249854577206402695 7.6300766495201308715 9.6212409567079468786 8.629124989021827119 5.700713563443643217 5.803865553812474154 5.6670270424453637048 5.9389839017673331512 7.4463091512832706442 7.0267920917803126102 8.496334580451494034 6.9169121204122046009 6.7453266201513528699 6.7803539804905144095 8.0443821287139023468 13.28692832932627077 19.276373006593580328 25.719074183726970517 31.122666339335186336 31.882483409939787578 31.196605688180198968 30.452252522462689655 28.323706920786772656 26.006889532022110956 24.799172608400592566 21.921480563816860609 19.704687240102284562 16.512260786258288192 11.516355260765120505 9.9872349193460134842 9.1709739497713442802 8.6664204305456582489 8.4578998984206723577 8.3409799985825081592 8.8810604052207775538 10.14830079601745183 10.709348817913136642 10.86920547243382984 9.6796384038768259472 12.653387110066287136 21.705518708517534066 18.441792609729649399 10.224237173265702694 13.252589752635294928 9.8513738811273352525 6.2720286211805289511 8.2091885227703116357 7.7951533291208443543 8.5196173393368006543 14.564482846161947549 8.959743709796574862 8.778344621352657029 8.796841451925555333 8.7994128054936417982 8.8725627505063595635 8.9535230799540812541 9.0375327734905841481 9.1739680653294524149 9.2281477270549050473 9.2322858816513431179 9.3429771089611790558 9.3843261076232362683 9.508953784657816044 9.6589583134874548165 9.6213948266140185694 9.7782330037419917801 9.863428984200194094 9.9520822264439114946 10.034392436714128394 10.102702964765754245 10.109245540227815852 10.229906613720322284 10.406517529360826302 14.513565367415099061 11.91931233554452696 10.915693193743493339 10.500068064344828755 9.4001680727569496554 8.5014612072339499349 8.1676298708188639353 8.3443864491802237637 10.734521077891965746 18.306832947727535554 16.25921360155164308 10.906821692404809809 10.680292335690488414 10.611834918032096553 10.569623077094838948 11.066086606518313218 10.414435466483533688 10.147150317047501034 9.9683906670135691286 10.025133684712510984 999 999 999 999 999 999 999 999 999 999 999 999 999 999 999 999 999 999 999 999 999 999 999 999 999 999 999 999 999 999 999 999 999 999 999 999 999 999 999 999 999 999 999 999 999 999 999 999 999 999 999 999
999 999 999 999 999 999 999 999 999 999 999 999 999 999 999 999 999 999 999 17.337832967830632214 18.858362722835515513 19.01423990719541024 9.7417364940549919794 13.797170989004936104 8.5798991496215393227 7.6128548854076347752 7.0453201431863385906 7.1380943760272126397 7.1111305005065039708 7.5116124591755770723 18.865284180697404537 17.372703207191673158 14.54203218099499928 14.212914339319759449 12.833810749366962867 6.7798507889189272291 5.123182878252270811 5.1986871932331206736 5.3177154357451827948 5.6517701815009191435 18.380736356318756464 23.772651579832601243 14.534708460793906326 4.4303298818689862415 5.1920609349536590571 10.350742763541980196 10.178092611860519057 15.062806298230183799 10.728539988547442618 6.3165651195706571386 7.0653304552328757282 5.7171150756405157978 5.7263616635013603329 5.6414141556161441216 6.1328669905238353266 7.5385632145082208666 7.019142149233000616 6.8459413018228261194 6.9309624689722770796 6.3451758876307469137 6.2326108906326069814 6.8856243733343669433 11.094648496481669397 17.423573663818320512 24.12693196647614613 30.979833442827121814 30.988832590875787787 30.103008528462613214 29.230382845091178012 27.761503855443720568 27.168645846415447664 25.518697539744941594 22.925367339156590418 20.471682179733363682 17.474651431237763433 10.802893752213648781 9.2403778164999099687 10.512721710440850131 10.101484054065620555 9.2864970921386635894 9.0327322509037628606 8.9526903102986867822 8.9574670987812829992 9.3718948200863856357 9.8050126712632543757 10.862645521180871455 9.7425319032445898415 9.8241732342756158403 19.418447941588027561 9.8551715573789007152 9.053243120942912725 8.7176219173188211897 6.8542444186065081269 6.306641091005793065 11.334301064850288654 8.164934365692403162 8.6996464331951184334 9.2971308463512851716 8.9428481687277336931 8.9582258145925788284 8.8315962982393170222 8.8754352505816864749 8.9539085653912664498 9.0325173188131575586 9.1095088310747538429 9.2430898821257763132 9.3374747708522196632 9.3815725895264101553 9.4176390395473301709 9.4924067892618886333 9.6466779429214106756 9.6968603885065522974 9.7956291594419919733 9.8764563091164898623 9.9687074763277578882 10.013055670506782135 10.041348948978045641 10.069338765114929757 10.577619433346455935 10.737524744898626849 12.342634811761088898 10.832884651354676819 11.238016409518490235 13.25829668689039309 9.4414523874625384536 8.2215832796648875558 9.6198735186669956931 10.794153016241891052 12.28483311801027078 15.74101364961207139 11.854797324424058758 10.861730987023380024 10.634136285981652392 10.727454162234149493 11.308264828795714152 10.358353718279373012 9.9928583495873262166 9.8860843943066392114 9.8484276564678463473 999 999 999 999 999 999 999 999 999 999 999 999 999 999 999 999 999 999 999 999 999 999 999 999 999 999 999 999 999 999 999 999 999 999 999 999 999 999 999 999 999 999 999 999 999 999 999 999 999 999 999 999 999
999 999 999 999 999 999 999 999 999 999 999 999 999 999 999 999 999 999 999 999 12.70190200836486305 6.5493235709879815687 6.9651574687769794991 12.141921511401458034 6.7399921164226821446 6.8288580797604909733 6.9857733948352045417 7.0484262547066345306 7.1622024456013271276 9.4033871506678163854 21.764818772047412665 19.67089373323472401 18.05390714546971509 19.215003331255893215 19.054700483439901859 12.206244413067237176 6.3426373385161696206 6.0200884903220126532 5.3194869331836764914 5.8279531229833079209 8.2991225922058795561 12.486749282603135214 5.3239199320379526625 3.8990211915580066382 5.9930771049427287167 7.6956587787945318624 17.695574759120304975 9.3951409165355723729 9.7014299060517483753 8.3804667077272210207 5.6526013321856325433 5.6388096622224859189 5.6812425112333260202 5.5586521012160847732 5.8486658035934597777 7.1388151169423172959 6.9436843182245624462 5.9430814797311501962 6.5930605577554999286 6.4457236506257711284 6.6658304739813400985 6.9415447710571180906 10.892676657579041688 17.13362280517853975 24.120992003826362549 28.205343255894497645 28.161930586944702526 29.683009353780587247 27.448727451870666982 26.084576159526562833 24.621455482023186789 23.540959093066369689 21.052868700024315984 19.107759275011989786 14.362166938903893509 10.531144826239334122 9.3675950207885492205 9.6367267794463540298 11.07328470975368262 10.934043763298799234 10.329169978743642844 10.62401031808316354 10.39074646301815541 10.398303157868689084 10.324517378519157518 10.236037367695898226 9.1621651864534392473 8.1940607847685438259 12.281282566899381692 20.867242378593498842 12.968406498898707113 15.516793367312802232 12.408595644906069921 6.8095948692012049364 6.8930840077320763015 9.500506591785780941 8.7059179197646088255 8.750367554823773375 8.909643226711166264 10.268050102880236452 8.9461020216700344321 8.9064455092825252081 9.0025943037974176519 9.0507608240285275514 9.1351110212879014227 9.2114970541602048115 9.3031654765885338776 9.2864075921398452351 9.4399575728114530904 9.5398501925481795638 9.6538311059535839576 9.7446284234339692887 9.8117057270840604133 9.8594869219715093323 9.9586891215519948162 10.047476652573955391 10.261433545354647023 10.397051430714768117 10.452682851792411967 10.569060447938920078 10.436886416863140781 17.65824572546781468 14.598915861911873293 13.081413044977610483 8.7084692087225121782 7.9120547093491380153 8.0396455329204474793 10.329661927026403845 12.884606291220340069 13.226742088022421129 10.789851932462765305 10.564616336666844632 10.539710345531021929 11.253205688053069977 10.021437014203575799 9.9154292737578177963 9.7311552406666628201 9.7544246472546944915 999 999 999 999 999 999 999 999 999 999 999 999 999 999 999 999 999 999 999 999 999 999 999 999 999 999 999 999 999 999 999 999 999 999 999 999 999 999 999 999 999 999 999 999 999 999 999 999 999 999 999 999 999 999
999 999 999 999 999 999 999 999 999 999 999 999 999 999 999 999 999 999 999 999 999 19.728210020481167675 19.407098449796290396 7.4471917814528278967 6.6091926197653272368 6.993281827454842059 7.0363020997253151734 6.9315916696566546307 7.1495129893305113811 13.538216214190093467 21.559032843783732858 25.459117258257471406 18.576689473342160142 14.269284881611204341 13.472546334981053917 12.057736271149373408 15.873372823041266955 13.072953529396608374 5.5822999147152172483 7.3413692699012322862 17.330691416483549716 14.241378317120055641 4.2919342419922488219 4.1122817785901260024 7.1670092880528581958 11.208068186492115004 14.826368842029538087 12.157597841745300116 9.6762479281114668339 8.1552819239730141021 5.569271117633966206 5.5903126173250008435 5.5955712457464281684 5.5025748082884735624 5.73303094493552301 7.4497021175407365234 7.18282312770930087 6.4785849529833710037 6.222505304860980857 6.2090639763030397447 6.7015423745794429067 7.3895777305608865149 12.196155162475852407 18.572250960534958608 24.567154479743447126 26.267440552990272806 26.60622425750980824 25.214543876591161364 22.366915151188635491 23.227093200118783756 20.316078637285563957 17.376392061298385983 15.322352664098609409 15.045698227770330391 15.573741121670828136 16.325661277883533273 12.09424208048909577 10.628138676743269286 10.364878538207245029 11.288782329560504536 11.317210672967753737 11.546501518425287713 11.825038038890387071 12.145300061883498088 12.138406057764866475 12.163511984595254845 11.153499695368145339 9.6147048981216105545 8.6456513705553046378 9.1772116847363580661 18.456019748370895428 17.979181680082323425 13.163345990274439856 10.608863791184987235 6.7114767188975097412 7.3036947251722450503 9.6517474161508562958 8.5689819978251975385 9.1534774849176319123 13.0480722465072283 9.2579186760128528988 9.3283010446340348665 11.341077720415853491 9.1274155985514973111 9.1577605728431255017 9.2147438942437744913 9.2825343220199556526 9.3482828266365576297 9.4212962196603129428 9.5304506341559136473 9.6946241406127047213 9.7431997717383005408 9.8165402081713413196 9.845823941965580417 10.271925791463303312 11.956425469438123343 12.807935657965845877 10.285410202002251978 10.128500247431981407 10.98881432294218996 13.993705149166526525 21.588099259857465029 20.105421211143873705 9.0069935391169639871 8.0852775565512775557 7.8827238804284398555 8.402919867865083603 9.6839004831106478832 12.866372990187004532 10.541835094491537106 10.429820019034462319 10.43175745233128815 11.226137120143285131 10.327920295448691945 10.094665282417974339 10.040660418910015039 9.922444949358778743 999 999 999 999 999 999 999 999 999 999 999 999 999 999 999 999 999 999 999 999 999 999 999 999 999 999 999 999 999 999 999 999 999 999 999 999 999 999 999 999 999 999 999 999 999 999 999 999 999 999 999 999 999 999 999
999 999 999 999 999 999 999 999 999 999 999 999 999 999 999 999 999 999 999 999 999 999 14.014540943721927491 7.315169667563317546 7.2394932074210851525 9.3644841263905931328 9.1335580549537294104 7.7320032459548153625 9.0548649342611859936 15.429993684466351667 24.875900462135614788 21.178171113413231552 23.249439191290740325 6.9675148334615055745 9.3670616124148828874 11.821039198847746121 11.75738286475503358 11.106363051795778318 5.5288616811811168716 19.993750007178878292 5.6329856987197874929 4.8571816124997058139 3.7963568179874633834 6.4257990597744134575 6.4229627354237068815 15.383377981880951069 16.222865788075861104 9.4505336347305135547 9.536840405617768468 5.6347085147472526501 5.3439256808924016084 5.431480462437717982 5.5436302249895028638 5.4445907768799264304 5.5792217007267339568 8.03086133378468503 8.3832942139830919359 7.1857282564500755129 6.5040445285068138048 6.3128142321388516223 6.5799688739290829176 8.3765246816505918304 13.523841052769487447 19.725876530150966204 24.887784618913205037 25.250580168711707074 18.984792715596892521 19.177626481869765485 19.549272743677821751 20.534396647813604631 21.486336459212431294 20.412190406269349552 21.046922768239454626 19.14167273240560263 18.148538374163749154 17.514242895817705659 16.312881381197964714 14.334912920673430037 11.083006169654149531 10.206271268962820997 10.640545359015028737 11.191663738057632926 12.146744036024182734 12.829894706468552457 12.86834641310440297 12.926019267578347183 12.725827337511258719 11.175240086218146018 9.7611760913559297848 7.6173861999435255044 10.335059512148008665 18.132424835833884202 23.455814398875538984 9.9523844388917570569 6.7944412899705719511 6.9832361740602237887 8.6399199542375715311 13.066264379283300201 16.46420968668542173 10.567654701764068292 9.4289216106115407712 10.854847129210320134 9.8567070865477077746 9.9997217382346157422 9.3453894632712710688 9.3033967792857517054 9.2294930214011898784 9.3684259946243937378 9.4747912203164457168 9.5274902134742323057 9.5921748780067126461 9.6914137133393349899 9.7821719063342662537 10.08063609081801637 11.558471008042218386 15.865569404162167544 15.797936835389927879 14.768440176151905519 10.417790873254935136 11.800102358159437088 16.209115892531922754 10.480055964700868643 9.2095088242749341134 8.051512689899201547 7.8140931273827174408 8.9436892652420088012 10.387388610610848616 11.2625142946137764 10.739705981499934495 10.509729641326487126 10.376363615665804119 11.05360422210425142 10.132698778310915699 10.023014919105341036 9.983202023240075107 10.048091758780998362 999 999 999 999 999 999 999 999 999 999 999 999 999 999 999 999 999 999 999 999 999 999 999 999 999 999 999 999 999 999 999 999 999 999 999 999 999 999 999 999 999 999 999 999 999 999 999 999 999 999 999 999 999 999 999 999
999 999 999 999 999 999 999 999 999 999 999 999 999 999 999 999 999 999 999 999 999 999 999 8.7639731078059401881 15.075138906623092083 24.100435979312823775 12.343467352538924686 14.492699228542141654 13.462271290757801268 21.156226417615378921 20.671628364759374819 17.038313119284786978 8.6313036095120754254 8.0899381649432928754 6.2968557259433062256 10.803563779714286497 8.0322517871532799205 6.4437915743756795095 12.809103793325338216 16.943693580124449483 6.1112221210084261003 3.8643495422404829931 3.818245974972686696 6.7201832280639095529 5.8889872316132674257 5.6836234776094043397 10.301377381102364339 9.6418533997290651882 7.8538825410535180183 5.4650361407450196438 5.1814294771267963569 5.2682669273292779266 5.3683836867108407631 5.3827684668158832793 6.8599871428380154725 7.5482422348686863955 6.8522371519509963633 5.8275343544972955101 6.3470852681316394239 7.1631806958734864921 7.5082265399470484724 8.275617674032677229 14.642712092782860012 21.507561279608278682 26.680231937968539313 24.868010352885274727 19.132473105948285763 19.134879592218670297 22.049415790962356709 24.397018968466934297 25.24605120918120349 23.877123368007115545 24.181796064134932323 22.85850483400497879 22.266354414822906449 23.255334638977462447 19.20328560255594752 16.844704316572233438 15.361539387607926699 10.54843599032195911 10.153986242064998891 10.674134853460575556 11.753699024594922662 12.410692492708832901 12.841765214638222403 12.964341139892642474 12.927427913356369871 12.785983977059881767 10.918598037091078012 9.6918151298376162828 9.2354137306994026346 9.520417995916332643 13.64882104327494261 23.249740967291650406 17.263423919521400762 11.370772518639670423 7.4936180014048172637 19.589744371256347932 20.575450669830551931 23.125563615197801681 10.377729790552770339 9.50470101425988112 12.408735728275091859 14.98934286647821601 12.724359243299927513 12.252314277505796269 10.275812368137756891 9.3321461339331950313 9.6604360355241070124 9.5195238034743372424 9.5756493578494001895 9.7208512484845357449 9.9580730017501224438 11.759754457961395957 16.248155571450698886 15.18158227855298037 12.9258233719931237 12.992672682142309526 12.693793283576798814 9.806617088228296808 9.2050145180340638973 8.328601838075046615 7.8376156889325825361 7.6245458368112855041 9.364406103909688639 11.290467322611711154 10.585501787129640405 10.384957493444721521 10.329523269324843326 10.75359922751506403 10.759893070773507873 9.9926352935636462149 9.9368362866791404286 10.004239429690281682 10.00565895877051048 999 999 999 999 999 999 999 999 999 999 999 999 999 999 999 999 999 999 999 999 999 999 999 999 999 999 999 999 999 999 999 999 999 999 999 999 999 999 999 999 999 999 999 999 999 999 999 999 999 999 999 999 999 999 999 999 999
999 999 999 999 999 999 999 999 999 999 999 999 999 999 999 999 999 999 999 999 999 999 999 999 8.7771837531411431854 21.080441699338393846 18.464369544823746594 19.595680510113428596 18.858486956722831707 17.613534967406156539 8.2985085522241348599 5.8798140891595194191 5.7737870739549608246 12.592278289142141645 10.307241630700637813 10.849056491361659837 5.6033064947423953939 5.5880577768834358565 8.1004742246301688624 12.974198206146306589 5.2273012576422548392 3.6606991678378726363 3.8044999114858497613 5.0503224882392965256 5.4590592594520899183 5.9829330917517768995 9.5264962674149078481 9.0473078882777215881 5.7124900951485484413 5.2080390451793325823 5.2925146280184840464 5.2169448826883995096 5.2168086642099913419 5.470390148284614007 7.7014920419920640526 7.2010683357774745161 6.613769883941110983 6.663189269402916004 6.7122552786837719196 9.3666243203383956484 11.543486185855918791 11.121862011410994953 15.120546587181916465 21.855170172137629692 25.021942089907390994 22.17288810479142569 19.947875237079628619 21.068178955040504974 24.85737125154687277 27.675102190509633715 28.448412453367090791 27.628415865893501291 26.739160980718104099 25.971755281531454074 25.839930316879367922 24.397545929774118179 22.183547835482315236 20.341104985341203815 17.923425284795836632 12.944190954516507475 9.8114388446101816754 9.8748475596185585346 10.952578995967085618 11.404393750773792249 12.14329505387809327 11.834255984088891012 11.486747668168485248 10.779670986996617188 10.232734900484361518 10.573731598563899325 9.8561127263450920566 9.9734679032654351971 9.7340847883936714169 13.767876094393576736 27.499885171987536125 17.648828516600339356 7.3445098233437873247 13.570150023177287579 10.653756634750372712 15.228742445482494006 12.124167518954866551 9.6570862824277661218 9.2516187931420628132 15.304477683189853465 10.99701323817965104 16.549453846556733794 14.652119431053687748 13.7537036088196718 11.136261195461120366 10.240263804548661142 10.043129540035987901 10.712212890493896467 13.399951261014905413 14.821913506659356585 14.764921421686587166 10.857196196954809864 13.149653830342332483 17.825163781256026851 10.315248308429032065 8.6666552737808366658 8.1409996388780943022 7.5931553590886498029 8.0252105762505259179 11.381462977426290095 15.214609594528933911 22.18223627784315255 12.096659938112356514 10.176016240781136091 10.999781681982062409 10.398026028006780663 9.9833786734147036412 9.9449285938108307192 10.011664388778815038 10.041432557644892398 999 999 999 999 999 999 999 999 999 999 999 999 999 999 999 999 999 999 999 999 999 999 999 999 999 999 999 999 999 999 999 999 999 999 999 999 999 999 999 999 999 999 999 999 999 999 999 999 999 999 999 999 999 999 999 999 999 999
999 999 999 999 999 999 999 999 999 999 999 999 999 999 999 999 999 999 999 999 999 999 999 999 999 18.11569881150139949 19.25110645234195772 17.460835165627919707 20.643502000020724552 14.270900694891711424 5.2899189724083885977 5.4513350351062950239 8.5543552257190853538 9.2879567039824255659 12.724823144086728988 7.7832424468691296937 6.2502509151152256806 5.6089443634540874228 6.9647321270191628884 10.866127989006090004 4.5354395564556648779 3.552124787571687925 3.5803459568329611962 5.2511033684679633282 4.905546010846850713 9.33802885808644767 10.032386345206719014 11.587872013366943946 5.3052620805183146047 5.169103464697903938 5.2746629330348344666 5.174155164956849795 5.0544448174772522719 5.6956402603634703752 7.4488830302682620399 7.497055167039587964 6.8613910433578917392 6.3866531955110721341 6.6539672381247818578 11.449162883119347711 12.316339084096544099 13.149738236387168655 17.693292953473417128 23.874647586233887608 23.342478688001083498 23.241655402641324457 24.394494973040700359 24.922138561599947337 27.801516517436450471 29.531014044390136775 30.120725068417826265 29.608903947055733141 29.189688429662101754 28.636358269184388092 29.337967507223083885 26.830577429165774817 25.527612341445820476 22.523145345083101176 20.445493346781752564 14.447795147817220851 10.558458442544555567 9.997032924719533753 9.6879957852424674059 9.7798111280376236465 9.6506170831044642 9.6401866430256326623 9.1739102862164685348 8.4610830319159031632 8.4471880549406552774 9.2568937368350372452 10.950146559477694552 10.681684849469528231 9.4911153014390272631 9.4443095599100068682 10.863347094943577531 17.824496883336237829 16.542245245314628477 8.064747032964039164 7.7753086665091730723 7.1049716416586150558 9.5616339863211621264 9.6683147341822692766 9.9230679937771881782 9.7446724173045691231 10.21618581786066926 12.387248532777444865 14.597872384625977915 14.638883988132608494 16.13356113343586884 15.191830292118105206 13.644108830781389585 16.100939016966375306 14.566056025706210164 12.06187304808583427 10.233062040172750784 9.7950357895001687325 10.096084790809500831 11.886208108184909804 8.4283239499274067441 7.812625248649636589 7.5037266041467889366 8.2095177444674884981 10.717515916825309574 25.777278449655405268 20.689489329045130717 25.633416176775853046 16.189602158362344397 10.493831620328643695 10.012806062740448709 9.9829070902376830787 10.151887672344685143 9.9726987032604572647 9.9452620342711153256 999 999 999 999 999 999 999 999 999 999 999 999 999 999 999 999 999 999 999 999 999 999 999 999 999 999 999 999 999 999 999 999 999 999 999 999 999 999 999 999 999 999 999 999 999 999 999 999 999 999 999 999 999 999 999 999 999 999 999
999 999 999 999 999 999 999 999 999 999 999 999 999 999 999 999 999 999 999 999 999 999 999 999 999 999 20.090059985203520654 18.185883614200388791 8.6722433429136156491 7.6263366464825850244 9.1287777710458151148 20.146310361933057465 9.3715030547231972236 8.6438697565595496997 8.5022039480296989211 22.602354296425204438 18.604551731961507244 5.608261816357715368 9.5603639087141338848 5.690154752366057167 3.7177555417487186951 3.5699406832612368135 3.8384522330731458695 10.666269211263930572 5.8366555164799835964 9.6711540502958950327 11.06812705539660513 5.9193493814264286357 5.1721490987902276615 5.2463240171487184327 5.1918718912877501737 5.126399993695382129 5.1513117279925655367 6.1504864101948042432 7.7381198171377221229 7.2794104650466886497 6.2918982218091148439 6.4268095679538621567 7.5357160144705819249 10.840917165872699712 13.587047904683698718 14.795940978163086399 21.483046430544931127 25.9991298882097297 26.633686911973043721 27.227407279470192236 26.792293066548893421 28.761605555327847128 30.332356974505739089 30.010833008583915671 29.996555785135690542 30.117046207321180873 29.65107121008881208 29.448197698492286634 29.085643581706513316 27.997920037169279794 25.867780649370352819 22.901241799206829342 19.870478952264967631 17.070417891097307006 14.222021329706043602 13.049925594082530722 7.5661368648155029604 8.8834273665430742994 9.3912027664428485707 9.8652174547972037999 9.9645940241307258134 9.2215832457867126237 8.6972732533216703388 8.5148605385555597991 10.11211681681890262 11.907242513332448652 11.804074678831959488 9.2788795451597234631 9.2017465204310227023 10.340009739876681039 10.045249369452315946 8.2278911915971431057 8.2966977102993233473 6.8141975856931455979 6.9252049265340609452 12.296411703568892904 20.601327021081260682 12.1575025216574506 9.2299390157639482624 9.2482701557649722446 9.2452161729630457643 9.6162834591630943493 10.483729669407889418 9.590554690085673073 11.886913731208444744 9.6318043809715252479 9.8280824572748208823 9.4536169597542176746 8.9894253590248620611 8.2461346226038578777 8.1047890191038547414 7.7722254343254082443 7.2757757521951935686 7.3868943229732053624 7.8553353945841664085 10.382354264221161699 24.254888270529725958 23.811090170965293566 27.320326734943204627 26.063894130657825343 19.769947594583278772 9.9694179996515988051 9.8976941288692277254 9.793584074979593268 9.8940185342625834863 9.9069488765018665077 999 999 999 999 999 999 999 999 999 999 999 999 999 999 999 999 999 999 999 999 999 999 999 999 999 999 999 999 999 999 999 999 999 999 999 999 999 999 999 999 999 999 999 999 999 999 999 999 999 999 999 999 999 999 999 999 999 999 999 999
999 999 999 999 999 999 999 999 999 999 999 999 999 999 999 999 999 999 999 999 999 999 999 999 999 999 999 13.692112723366127724 15.707445464303770422 15.240166463510394834 15.943603079135499456 19.805345779220225211 10.980488654226290279 8.6448544547543750838 15.574220552666082185 21.309540936974087799 17.240932970824566439 6.1567317832244237152 6.4196320430894111553 5.5425585017659368958 3.5962288531347530451 3.5765397806308611983 6.8442012235886036109 5.6722463707490327067 5.2441998054972849275 8.0281381930350530496 8.5940437666042388543 5.2722658557555943659 5.1584817430493536961 5.2254170037382836611 5.1867245407893829423 4.9798115688409474444 5.2294958156780193548 6.0896817707636676786 7.2945091580389478381 5.7979784306797652604 5.5882621117612565342 5.9636273196106275307 7.7959049941568006048 10.523259616752520529 13.019261396245477513 18.347077248265481586 24.570923175811412165 28.800943981869554733 30.024869304171428297 30.568918092441371925 30.489214987023974146 31.67613681363825151 31.173091067342504346 30.069498613032820344 29.945762671801670507 29.534792510012803035 30.855346656629702551 31.194401907442053101 29.833618515318658382 28.037602819740268245 25.438719143624108909 22.379556208635509762 18.514164095703890212 15.540008898292928308 13.619873030046415252 7.3621330887563587453 6.7739177191924699883 8.3944168165741501753 10.327020350433871343 10.456777947124466621 11.191855560742745013 11.720912878521273726 10.729550331909070593 10.535784416570470157 11.42889975884962972 12.010302306147289997 11.658525099511459544 10.433132175582699119 8.5554358728425086156 9.1487288221515772335 11.21997083549738683 18.856503021408446585 18.580913572919538268 9.7007185059895508772 7.3344252192248085009 8.030220789135279702 15.824974125382109236 16.551110980928914529 8.3305801574259294995 8.3689196234454517054 8.6038915622530041105 8.7430411693683041108 8.8808187535670395363 8.9689062848078950907 8.8892546292375005379 8.7019630911025664943 8.5245209990559995816 9.3746618342321301753 7.5434129771096305461 7.3247325890510062152 7.2622282549207630709 7.2569745121726194625 7.600264711523288419 8.2530020515934996439 9.8586854871134583789 15.224497854191719526 27.761444890613464764 26.357326316981314562 22.721653113956747916 11.791384244980857687 10.356104209748695055 9.7941851967805053647 9.7349980259087018908 9.7660274879095041456 10.285299758731840214 999 999 999 999 999 999 999 999 999 999 999 999 999 999 999 999 999 999 999 999 999 999 999 999 999 999 999 999 999 999 999 999 999 999 999 999 999 999 999 999 999 999 999 999 999 999 999 999 999 999 999 999 999 999 999 999 999 999 999 999 999
999 999 999 999 999 999 999 999 999 999 999 999 999 999 999 999 999 999 999 999 999 999 999 999 999 999 999 999 11.644031450716203935 16.591032569968277244 18.041548611339049302 17.102497061612197626 4.6245956598398008097 11.363924222832375577 21.931187385439947946 9.7684933940800462437 8.6114179953052545358 9.5672054869907512398 6.4038461606507945945 4.0693575273408360005 3.5473591673423974235 4.5956512601604773138 6.8219260770054326315 6.624952394436945724 9.2513080316108222689 7.7734723361342172865 5.5775686824057428836 6.1696418162879549385 5.1530805414130043118 5.1902797350892697636 5.0490422946487560907 4.9396801770394072051 5.1522578625413846254 5.477673650100054914 6.0172374308302281065 5.7371459893173932798 5.7169191423731957613 6.884736821834342102 12.531044632381158621 14.185531189459505086 16.136103312749437322 22.401383025045934261 26.710114412983383403 29.760377598946320177 30.985633183750444175 31.810816532781558408 31.887450473446811827 31.458865963781555308 30.918714621364994599 30.598384851050962396 30.236989481446453709 31.554167982946506044 32.614002525625281237 32.482365080702763294 30.837529509324163257 27.807864879721584828 25.341415665872407459 20.673535757775820088 18.527182802540778539 16.578386277389402181 11.627252288193041352 6.5612945026533990855 6.7726075022138170212 11.301957345531675969 10.466793775130387445 11.310362990610785872 11.165448156088118026 11.386848332311128473 11.332455471344076159 11.683618252684846439 12.265951806861576046 12.149393531218324327 11.509234343474817663 9.8636427983701437938 8.8392690485975524695 7.4325885661704989005 9.3259164588104948024 18.524882145329939931 23.903836564522940478 13.702062535062630388 10.833572315774564032 7.4113193005384259138 7.3832919168352351136 7.1483867469348929546 6.8278144909928482065 6.9641448947968509486 6.9124901496066524231 7.2453604574053063203 7.2158584308368114435 7.3188007857723560434 7.1602828363570045767 7.1976369279178662453 7.1573693866996261903 7.1197779369937261862 7.8155811548332705385 9.7673716053409158633 9.4885287078706017638 8.4320570162674624015 8.6593929177673949482 9.9652886347927527311 15.496210149527094302 10.289711891910860331 19.561182736936792992 14.715916713995476073 11.503471182221698399 10.04247453944081947 9.7557111049539457781 9.644244324475076624 9.5969077052699010011 9.5717877179870640703 999 999 999 999 999 999 999 999 999 999 999 999 999 999 999 999 999 999 999 999 999 999 999 999 999 999 999 999 999 999 999 999 999 999 999 999 999 999 999 999 999 999 999 999 999 999 999 999 999 999 999 999 999 999 999 999 999 999 999 999 999 999
999 999 999 999 999 999 999 999 999 999 999 999 999 999 999 999 999 999 999 999 999 999 999 999 999 999 999 999 999 10.785790553521559687 10.957810046756259581 5.4317767141957773447 4.6410182328803752938 6.9541872823549093496 21.661008242985111849 6.2458841692895417097 6.1080543946828846913 9.1339703389821877977 5.9785824477863007687 3.879072166441134506 3.8889450461460794983 7.7767382364905204284 12.495937419460771522 9.4222479039063369299 9.6157150000433659898 6.9921475666167998142 5.0390411508534720397 4.973942879193931077 5.068349494125836685 5.1137377098087490879 4.8989057050513080682 4.9841626751348222513 5.0718099773934177676 5.2313361121881145621 5.2964921626644194674 5.2968817558102276877 5.520754192020100426 10.593996847366970115 12.088008843322356256 11.04430563988980829 17.051936170235755696 22.970049662025353143 25.344862195164107987 26.852951167811841771 27.473285359101947023 28.797320639229766925 30.061347398373229112 30.958465461791529805 32.24854160885772103 32.999968625943957079 33.291404231556363413 34.351344021598755774 33.966590452371129061 32.944290964898172547 31.63463012830388621 27.383355223764670683 24.806652144369326862 22.460101883197840067 21.914210292500008848 22.886059773713252952 18.120844493702556122 9.400960480648102191 12.103362796885113184 8.1466824996197697573 12.019059895899660617 12.676570644467895832 10.93600635533448262 11.501673562952012375 12.696103972464582554 13.565665594306675956 13.718935727850926298 11.793304848711049004 10.991083734041454889 10.216624380530925364 11.073341577929161517 9.1071227843103965682 7.9178811635760206755 9.4775327947617427071 12.78451854994168535 23.626986568367808417 17.041230426626022165 15.665435244114313207 10.237869731863012746 7.7387335948792355111 6.9916461560654781238 7.0521409830136922992 7.7235423303342072288 8.0382438128444242409 8.005202700163948748 7.220043046813056975 7.2251704646476229144 7.348575171409667206 7.8722856688539772918 7.8305350490045908529 13.597997838984552388 18.952542769364750797 22.907052280361078545 12.806946101869565169 10.194727176297483595 10.269233278410510479 11.098248800985185625 10.305807407064005332 10.282797460889687713 10.113087233334905335 9.6936471409767488439 9.70062039438873569 9.6202321301367206274 9.4684770106414273272 9.4695637406588719642 999 999 999 999 999 999 999 999 999 999 999 999 999 999 999 999 999 999 999 999 999 999 999 999 999 999 999 999 999 999 999 999 999 999 999 999 999 999 999 999 999 999 999 999 999 999 999 999 999 999 999 999 999 999 999 999 999 999 999 999 999 999 999
999 999 999 999 999 999 999 999 999 999 999 999 999 999 999 999 999 999 999 999 999 999 999 999 999 999 999 999 999 999 4.5201395232744250308 4.2110874146669390328 4.6017423447698098116 6.8069733932596676595 16.849398822440541323 6.0241879731889342864 7.0110041040779362831 7.3559499751335408746 4.4035724922367247558 3.9235513764411988902 11.341425032046691612 13.221025201679836414 7.0587836055551314018 6.4466750280452442823 9.1904152922168194095 5.6774430752086511021 5.2912691971427205928 5.0051147266673723379 4.9166780862313723688 4.9675558316540788795 4.8779658959387761641 4.8602398841719356426 4.9218041073145775144 5.1112172478743644888 5.2273572264747230065 5.379477973426181947 5.4232405115391912886 11.192403780668836788 8.2307296204911963855 12.616396389855058402 15.728265185039051133 19.643573453498930803 22.724516150446159912 24.657001115202774599 26.500303669970371345 28.173516523771187536 30.131913913501481517 32.291732228154998552 34.704340067253497182 35.7492846958819257 36.536183406882273061 36.337783362739799031 34.508763380778191276 31.858999451574479878 28.90418120112820688 25.612807106408908453 24.014917246760802527 24.07245682616098037 24.446359351699744167 22.825417676628486419 23.976712366693952561 21.671908812836079505 16.249333212696932094 16.031646245284022712 12.983217595326561167 14.074934094409316643 10.734747855691177065 11.506764208398969629 12.415333188408240517 13.339217116685398778 14.225758230183847886 14.100042562770072507 14.114551336613745391 13.08264035078690668 11.918795270499511929 11.144760915831600556 9.109245292641643843 8.2521749959102717042 8.9208948829518739387 12.189172477274144768 21.628288522557550522 19.88942476555720873 23.362376485505407686 10.651316169641798837 9.3332176942112976548 9.2742351551933452924 20.164552981032311862 18.140136941196800535 22.566502390635498898 21.074390701767878653 9.28829737391768262 14.51280670449625454 9.1836043274284016036 19.830264063396576546 20.914540836232454524 19.41839953682056219 24.928170018003687147 16.451384175253078723 11.237279600224375997 10.251617700948523648 9.8420429303551522082 9.6980563562109853848 9.6703232114484833915 9.6402265463632446085 9.5995027518772122477 9.5768594074506960823 9.4476754080339304664 9.3445332458460477199 999 999 999 999 999 999 999 999 999 999 999 999 999 999 999 999 999 999 999 999 999 999 999 999 999 999 999 999 999 999 999 999 999 999 999 999 999 999 999 999 999 999 999 999 999 999 999 999 999 999 999 999 999 999 999 999 999 999 999 999 999 999 999 999
999 999 999 999 999 999 999 999 999 999 999 999 999 999 999 999 999 999 999 999 999 999 999 999 999 999 999 999 999 999 999 4.4856056035483220512 5.2737057960665065792 9.043703368082402605 15.616677203721950562 9.7751892727096976188 5.8433986466025160667 4.25402443482750936 3.4851117242352511738 5.4769704370118326153 10.875250340435080432 10.93168373509542235 12.05765272966574031 6.2159707827421861737 9.284746377462919753 5.4796712974290784359 5.1401800546512292911 4.9810218597633202364 4.8750255736775978121 4.8909653638137244869 4.7770634768679229865 4.86134268054854779 4.574469353283728168 4.922287680741372462 5.0448141985032490808 5.3465384483681592798 6.9663645402521909844 6.9637300880050112539 9.2016161669746416862 10.637015157501048535 13.058719526684596346 16.174667801767348863 19.250005113956255798 21.539193105706743836 24.211707390573511844 26.961496455228648017 29.474287198921327757 32.550508806650263693 34.979113630588834383 36.909889600592457271 38.112526902946015639 36.712558924693198037 33.775666105293069563 29.945905923147265071 27.533227808027991301 25.236886833200632196 25.709261612926287199 25.266395625218173393 26.247320510902824253 25.874827044268730702 26.055670657492772335 25.555397883573800044 24.497404348492569426 22.248819237634354096 21.477059446245082341 21.032742428611054919 17.157148058814339464 14.584587859021597822 13.293250655352593981 13.613649350478867817 14.196991625017165717 14.654673206052150292 15.240904787650658037 14.900879308844700688 13.855633579659928145 13.118655250271000767 10.59628244901171179 7.6245572396928222858 8.6565467917831000477 9.1983058358480764838 10.768862950606862938 11.514613050227534785 23.815475517467412203 23.724751066301291047 20.138758348620633853 13.041760072118840696 17.522835713687715753 20.985461794281000891 12.818875992045841272 20.221612662067968813 17.143161920451614577 21.583776305754817315 20.147699954796568278 22.380606197903766486 18.943131403696764181 22.047603724667411029 13.642168555020854015 10.530931332777019094 9.8231096822915962008 9.7147566512463363608 9.5461908126353520743 9.4903534601410175497 9.5438108753805792617 9.4765832780024723547 9.4606130939422126147 9.4214266044412546819 9.3834194902933347748 999 999 999 999 999 999 999 999 999 999 999 999 999 999 999 999 999 999 999 999 999 999 999 999 999 999 999 999 999 999 999 999 999 999 999 999 999 999 999 999 999 999 999 999 999 999 999 999 999 999 999 999 999 999 999 999 999 999 999 999 999 999 999 999 999
999 999 999 999 999 999 999 999 999 999 999 999 999 999 999 999 999 999 999 999 999 999 999 999 999 999 999 999 999 999 999 999 8.7164540073698351108 17.214906626182845173 15.521744654802851926 5.5475366251690347852 3.9001086951868164654 3.3848838580760829409 3.8479632811202644227 15.524806988425279286 18.194998912892394571 14.508110456189141857 11.967785272446862521 8.6170504351081333994 5.1275000804078620931 5.0109076354575048384 4.9429482707204330794 5.047262276224101285 5.0236633261259378003 4.9847556938532298076 4.8002412765690456453 4.740078983054180739 4.641244022476351816 4.8912037407785318166 5.038288648148117943 5.3352503548158045632 7.0045038078369703527 6.8487113597329294379 11.617687597653619136 10.519417563561956896 12.43966515670698314 14.76917771584380823 16.412185597536634418 20.220693392092627505 21.911816928067043619 25.293703719462847346 27.064795943120053323 30.028505207511742015 33.238460224035122792 36.447600039805330141 37.892638791820139943 36.692302714108301132 34.552584779162970108 30.795185560063444541 26.677258865796954268 23.502051767661193082 29.050180504374310431 28.512534730840332742 26.475462127297433312 25.172066763190578342 24.525286628926870947 28.577043289649232349 27.172887365289383865 26.470594198568921485 24.648586115254904172 25.176433165546690418 24.37501691855668895 23.489648441557648084 20.958250092667025655 14.855304142976548221 14.836297368699357335 15.371990314828549273 15.527815762467287897 15.279991217106413615 14.691636590703401666 13.72013016530127949 14.477804744513344204 9.6195557363811889928 8.3802831613845363279 8.6050894355128004776 9.0052652493714298032 9.4799403385126606025 10.819779142782653736 12.464000806374798458 13.042717244235166874 13.149604792662266561 10.128423726583259068 11.568623652427881154 12.303674641220904817 13.517984085690496698 10.217767358965939906 11.414564308228555944 11.832815307173195407 11.307062796472267863 11.189947576292862408 10.125745859934914606 9.7653717691801578127 9.4323770987073327632 9.4647723221061816901 9.3723502999034611349 9.428512025869048685 9.3955853438037681968 9.3510225459546241211 9.3586719040229287003 9.2890304293638994437 9.2895939033511467642 999 999 999 999 999 999 999 999 999 999 999 999 999 999 999 999 999 999 999 999 999 999 999 999 999 999 999 999 999 999 999 999 999 999 999 999 999 999 999 999 999 999 999 999 999 999 999 999 999 999 999 999 999 999 999 999 999 999 999 999 999 999 999 999 999 999
999 999 999 999 999 999 999 999 999 999 999 999 999 999 999 999 999 999 999 999 999 999 999 999 999 999 999 999 999 999 999 999 999 21.878959218951017363 7.2376409992062535892 4.0927434098729174039 3.2797158589731036926 3.256236833476590764 5.0228965402398140228 7.056936163486559721 11.251588279934047421 11.421929723095740172 11.006893125503262709 5.9687668206181161423 5.1465033071083805538 5.0147688692637952812 5.0795230742289216863 4.804118168401353195 4.8383167434532410311 4.8286681510159237263 4.8348766013777275674 5.2949278561683854605 5.1762967216638102741 5.1080174594659970566 5.166057478594714425 5.5669845556331125636 6.4486069555764577999 12.425397487415491327 11.351089969363666654 11.453462604765691779 13.445226840021803127 14.919385975106747466 17.54618450594223944 20.142682023924169954 22.39159449013089187 24.403517891809219265 25.497066265662898132 28.193190552659590509 31.76855694934404184 35.008871965371753276 36.879594857635538574 36.111547970787867712 34.132838090440877465 30.526632319457338127 27.85984825602985282 27.19795844929408446 28.037278888673466071 27.305497146410502296 26.352191851726161076 26.275910996186652824 24.829927811694101791 24.337959988782600362 27.08740287423936266 28.883747686218903539 27.120377288208299404 27.569725460179409282 26.600410589750513424 25.496425956414164204 22.778279779108299152 16.052756263065589337 15.34855876625326232 15.86051544953728154 15.900603458931527712 15.324755044576692242 14.446567458330081379 13.604645104792089327 12.7255613406863759 8.5355810320943081848 8.2307336564591526695 8.5602969446782868346 8.5467796992381774857 8.7323539740136535414 9.0357784218232115592 9.2309690971606030985 9.4934366101569356289 9.3539302636533143698 9.5424371131509122534 10.001265244121739784 10.109904592328842199 10.169496926227150624 9.8399109284318821977 9.7005822274129194227 9.4215828496895053235 9.5759304749193479012 9.5947550778728238896 9.5109665760834705139 9.58408214769606559 9.5679511513273176604 9.4350149784462207236 9.3523743664614826798 9.2087539204818558147 9.1715610420161510774 9.2660022978660929738 9.2273619867838991837 9.2446994866342659947 999 999 999 999 999 999 999 999 999 999 999 999 999 999 999 999 999 999 999 999 999 999 999 999 999 999 999 999 999 999 999 999 999 999 999 999 999 999 999 999 999 999 999 999 999 999 999 999 999 999 999 999 999 999 999 999 999 999 999 999 999 999 999 999 999 999 999
999 999 999 999 999 999 999 999 999 999 999 999 999 999 999 999 999 999 999 999 999 999 999 999 999 999 999 999 999 999 999 999 999 999 3.9693552324539775888 3.5991292170259714389 3.3525531710647658024 4.2566580962482074568 5.6521019960349292433 10.171025758903791569 11.927283117448393313 11.506320913993873134 6.9032882126174710535 9.9130784459259935204 5.4037910562356392674 5.2364687786093000454 4.935162433900191381 4.9002174623845222712 4.8236137707524147089 4.7951745663508136275 4.6899611014399811282 4.6261175375611802707 4.9159408408098954624 4.9438256085639133985 5.1701025952670569552 5.1316433987877516643 6.7454750588721692495 8.5558653467577538976 12.783139135236066153 13.573341516245069016 14.887984744288647931 16.427687565961992533 18.084184804810636393 19.987715684469428368 22.146348011613227413 23.971886347029574438 25.689801857521061379 27.023810439314495113 30.212203909289950587 33.901159057475922509 36.492024043404953204 36.898644216563369014 35.903161389192391084 32.79523027102951005 31.022219827746305043 29.808652827795494744 30.178665278614012379 31.329771828747762896 30.398539098431534455 29.704038227126083882 30.522796914263729207 28.205872987211389358 26.636705877567571576 28.47412944957101999 29.234146403109690482 28.595734435645141502 27.790317480442983111 26.156582691429427712 22.781118989262552077 19.806386523269949862 17.43238371800524078 21.317496706176843446 19.48691966651903229 20.819741764762536462 17.69003243837796191 12.833972856187365608 13.626921600596476836 8.810421912469502459 7.8447656300738737301 8.2458387563443054091 8.3692955135912932008 8.489406871643121022 8.7558708414589485614 8.8586857242301206838 9.0151739136607051961 9.0092873637627750583 9.1720848596081783199 9.2413597437728167705 9.2460155631231017992 9.2595178309229932978 9.2798235371771333746 9.2337030619427711287 9.4300118195380147057 9.4193827116924175868 9.4420941142645560262 9.4146776107364829045 9.3437608707687083154 9.338271000272440503 9.371575383900710321 9.3892235408730648771 9.38649076577876329 9.2129278096126849817 9.0340610168366861643 9.077485216222102693 999 999 999 999 999 999 999 999 999 999 999 999 999 999 999 999 999 999 999 999 999 999 999 999 999 999 999 999 999 999 999 999 999 999 999 999 999 999 999 999 999 999 999 999 999 999 999 999 999 999 999 999 999 999 999 999 999 999 999 999 999 999 999 999 999 999 999 999
999 999 999 999 999 999 999 999 999 999 999 999 999 999 999 999 999 999 999 999 999 999 999 999 999 999 999 999 999 999 999 999 999 999 999 3.9861821504871728372 4.694838562293716322 6.2702455756189952041 10.332087431817992496 10.069021127400253235 9.3131363689934207883 9.6005962490057221714 9.0704512208683780727 7.6995332358204837675 5.1886983680385991846 5.3541677678209902425 5.029224740060630694 5.2150066095592251258 4.9353099623121812201 4.6849074580563723202 4.5838361654241657206 4.7194430390794668284 5.0003765953389933685 5.1791779079905122529 5.7910505958366593759 5.3577890829914620596 7.6876173161061505112 8.1685210706018018811 13.272974544130237362 14.178849132955710033 15.614717541914357568 20.240982014394603539 18.699093118019934678 20.317598160902822002 21.986861733945065822 24.001805682624453908 25.300590859953747014 27.174998199700318935 28.979140139213313887 32.515639486370083944 35.036540335744561503 36.870839745094073692 36.235686508934811911 35.377377343961498468 35.096183796349514239 33.058490443899387401 33.83483028328826947 35.757377820387986844 34.073737510135231332 33.978483373780470345 33.678533845117932799 31.523172777463305039 29.163003190663754793 29.196693383449957793 29.602140201498389871 28.309856399125337134 26.506030518045385236 24.914227397525369412 25.374202772076838386 20.036301685152501761 22.285297145266863339 22.439996839946690699 23.029152665553240809 21.826998190317748794 18.479312233575718949 10.013874498931619073 8.5342961270639197124 8.4970541280873241874 8.3220229695296978889 8.3172856390948197713 8.4089190547332623993 8.5754549765212804147 8.5523238089494171277 8.6603187544527511221 8.7972220858076628502 8.9432344000537504769 9.00590557607977793 9.0194147896582173018 9.0346768233015897209 9.1006335695782176742 9.1425414690821789065 9.2230246984014847555 9.2413891908745213755 9.2620314474790639281 9.2890995447064028667 9.2540711959894110805 9.2002652835961153954 9.1617165733112546633 9.1358249253314998128 9.2126585588679983374 9.2813515365316536787 9.1697347491138483377 9.1840322801761882232 999 999 999 999 999 999 999 999 999 999 999 999 999 999 999 999 999 999 999 999 999 999 999 999 999 999 999 999 999 999 999 999 999 999 999 999 999 999 999 999 999 999 999 999 999 999 999 999 999 999 999 999 999 999 999 999 999 999 999 999 999 999 999 999 999 999 999 999 999
999 999 999 999 999 999 999 999 999 999 999 999 999 999 999 999 999 999 999 999 999 999 999 999 999 999 999 999 999 999 999 999 999 999 999 999 6.1797208922641315709 11.357270439358412517 10.08464713106124222 6.8953903180193023559 4.4768792851156771206 8.1318417370368578645 6.4451918652539044174 6.9001455871336547787 9.2574882900076644887 5.0413024262148304899 5.1658601834269806119 13.570093499302297246 5.999615431653579023 4.9478109567530976776 4.9786464815213031798 5.4120997597209692387 5.7358881637408387633 6.3601115155923677591 9.9908170490102445882 7.2711775841278001309 6.0109835825162862832 9.0809027532916264391 12.575254296416817468 14.829423454415209704 15.623497137574272386 16.123158904257334001 17.718932217325694012 19.385840797903721722 21.229377648459902161 22.791410415207352003 25.247797407800383951 26.341704795628565705 27.857892309375095863 30.101473258795415688 33.229188276979435557 35.126006702503012491 36.302741490142871328 35.815396645846782064 35.58007632678972243 35.555019736853608947 36.264234417993250759 37.288680006677303425 38.123516665817064109 37.834587718361603947 36.60102991386911242 33.902359779553563612 31.090329572314434614 31.682939661491388961 30.434192832354877822 27.595463144845659542 26.358445006091141494 25.368729557417506015 24.216913865404741557 22.79996168241165222 20.9079606466141108 16.427516110242475378 23.239353813266692583 23.225672114372862609 21.401319838867362222 10.540731832237392851 8.3883757761465975733 8.1602599394105777009 8.3562500965782806617 8.158193385656090868 10.944544430760570819 14.630158132092168088 8.5669808879526669898 8.5337674155986178448 8.6095200907571367566 8.6442293936899847751 8.6916858063107014232 8.7979663823574458803 8.8525842312040712301 8.9082803061225490637 8.9835083966981006398 8.9758792990974960446 8.9938051819551816379 9.0930637018804834071 9.1509908720256554204 9.0193843414475303177 8.9262142276122204976 9.0216664596367213136 9.0307497900643820543 8.961921551135747066 8.9720045571324327227 8.9904317671131206424 999 999 999 999 999 999 999 999 999 999 999 999 999 999 999 999 999 999 999 999 999 999 999 999 999 999 999 999 999 999 999 999 999 999 999 999 999 999 999 999 999 999 999 999 999 999 999 999 999 999 999 999 999 999 999 999 999 999 999 999 999 999 999 999 999 999 999 999 999 999
999 999 999 999 999 999 999 999 999 999 999 999 999 999 999 999 999 999 999 999 999 999 999 999 999 999 999 999 999 999 999 999 999 999 999 999 999 11.04208782583445192 9.0044537543430092086 6.5867247939832571646 13.950666509827087225 6.6177098169455730314 5.670968065146130499 6.3526832247374391827 7.5867651243852129994 5.3500738373106493384 5.1373368697511203607 5.259718730374478568 5.158237514336947882 12.336216207565847469 11.590307285203433452 8.520648592994405135 8.9666603999897969146 11.369200783241996788 10.855223416122289137 6.2538830109800080947 12.000845878397571553 9.0261463033435997971 8.5227506447496867992 11.691645717192040266 14.222802409778246613 14.965075505396006506 16.52371267295341184 17.923993749907651818 19.425072543220487375 22.214343829749278569 24.703199772752068242 24.447758130910052898 26.331055256801473519 27.888380296645717493 29.914447728164017093 32.184769714230050397 34.965701720486450199 36.326873995454839417 37.209400939032938993 37.349793407827803549 38.604962553166579653 40.051268481613625738 40.670750992083874564 39.755285161328757226 37.679400905712761016 34.693450347782921028 35.547569427907191653 34.605463255485339857 31.370747177376323123 28.828382997096646534 25.597275299481584199 23.886317342155283683 23.225652480905225161 23.674445262489378194 23.141220531798396109 15.710759822097001503 14.928398175910174928 16.431930183964109204 20.047089099393186729 18.773942803752717623 9.2711304719522367179 7.9395091365953254225 8.7616984562026836159 8.2613994222064395245 12.081017090118265855 14.586494941184074747 8.2178444036466853362 8.2900111835227718871 8.3511782824959492899 8.4434521464107117339 8.5513983328514786564 8.6446242984066170578 8.676345418466194559 8.7434303767708669852 8.8000614285184397545 8.9123244981977016721 8.9148659767133455745 8.937358893278910088 8.9039419724863808625 8.8499923564850213609 8.9190904435266791239 8.8936969376120416086 8.8693220287031362403 8.8869254414081559901 8.8174034665269651612 999 999 999 999 999 999 999 999 999 999 999 999 999 999 999 999 999 999 999 999 999 999 999 999 999 999 999 999 999 999 999 999 999 999 999 999 999 999 999 999 999 999 999 999 999 999 999 999 999 999 999 999 999 999 999 999 999 999 999 999 999 999 999 999 999 999 999 999 999 999 999
999 999 999 999 999 999 999 999 999 999 999 999 999 999 999 999 999 999 999 999 999 999 999 999 999 999 999 999 999 999 999 999 999 999 999 999 999 999 9.534680667823600686 5.1859241673350870983 5.2852079321015619229 5.0030835537390343504 4.9093899865282626394 4.7804427058544360918 4.9934234556517056447 4.8977671373829245738 4.934301885931152043 4.7335205568089344652 5.211834763725940789 10.42805889556312593 10.635485625274341714 9.2729430062261695156 7.5588178424446672565 8.5992760153481828667 6.3365582339997423844 5.8998048867824914865 9.1336568147314718402 8.0901440439879213073 8.0462766403038905594 9.1906650950373300901 13.404758020130614682 14.811696405118848219 18.368452212605756557 15.259964843826738345 16.330539511327195612 20.884821678061882722 20.652504074818569535 21.880240283087875497 23.818952864909412881 25.288297507968778177 26.669698418105124205 29.151411028608002596 31.253128432651259061 33.788192856903144445 37.054860643471108972 38.02510698207021278 39.828164161234099083 40.794952722602829454 40.684410846724425426 39.027896888368502459 38.303985109625259042 37.553530026704514455 36.831220012840560685 34.880276558741492465 33.156379854867886081 25.657439073808607333 24.8311038621879554 23.421489252236423084 21.177903220449753263 17.833066106377934545 16.095578978182860652 13.646516384066206484 13.339751275514430517 13.058825889292704048 13.55218432254594596 18.273909291836876179 10.271100442731531999 8.4904260107831976967 8.011011526262462823 8.4900955826313477814 8.4191409124808913589 12.813454381835830631 8.3800711797054372454 8.2735785930743794836 8.2116784416994956786 8.3824133332474239921 8.4825151784957490975 8.5139340640865412979 8.6057155598119212669 8.6237651458560513618 8.6856634405750998695 8.6898936714102994472 8.6059811089019664365 8.5953280332856039081 8.7587707707572590721 8.8272794455044021333 8.8083559152461301522 8.8100994895313018418 8.7593376556100217556 8.7759243626043499376 999 999 999 999 999 999 999 999 999 999 999 999 999 999 999 999 999 999 999 999 999 999 999 999 999 999 999 999 999 999 999 999 999 999 999 999 999 999 999 999 999 999 999 999 999 999 999 999 999 999 999 999 999 999 999 999 999 999 999 999 999 999 999 999 999 999 999 999 999 999 999 999
999 999 999 999 999 999 999 999 999 999 999 999 999 999 999 999 999 999 999 999 999 999 999 999 999 999 999 999 999 999 999 999 999 999 999 999 999 999 999 4.6521084091103439562 4.7806049185443786342 4.5980985018634692452 4.6084778866755815585 4.682486416137821017 4.7703614510444758423 4.6824283578056871136 4.665906014351588027 5.578706041974183627 8.2202742345296240245 5.4307013613626109461 8.1020606630557754357 14.229297879208733235 6.8373890440333395802 6.4231101366755520843 7.0269196343682001071 6.2542150311090560777 7.7411705056112660728 8.0039391823986854035 8.0960511855141596982 9.145515802263933125 12.930514079961156426 15.089825868088704297 15.868990926926956675 14.340210514794211605 15.8076710520685495 17.239851771520285695 18.368793439485642693 20.822698598383489355 24.54569456442860087 26.591865544764235807 28.528264729699319702 31.108514600489812096 32.631209118156355942 34.490504783254394283 36.480709126567454348 39.723334341055220875 39.672701013530264902 38.633096274741099307 38.288415318246215691 36.837169320616098389 35.619807525375811963 37.599795274334667283 37.01211925276837178 34.212434472493931992 31.879917853033006736 29.304091105739129119 26.992717699175777568 20.184081094560227143 16.913563295389391072 13.277272441717967055 12.388401723772222596 12.843828544941446879 13.096056860322962123 12.658258681401301615 12.559413524996829281 12.131144698214587407 10.475442471469508021 8.9984066579526622576 7.9952966519496770914 8.5569410136748871309 8.1602685531997032342 8.2298156856010713511 8.1447837928514381645 8.2213329704567357226 8.1923415513570851942 8.232754590556401908 8.3394136605460911227 8.3666123570216743843 8.4335820989600911446 8.4516187148063419698 8.4456824957819094379 8.4760609281464933673 8.5649296924551983068 8.5582399109730751263 8.6617003580675735464 8.7391696081305028088 8.7324704883487527241 8.6954460924173258007 8.701614576586402805 999 999 999 999 999 999 999 999 999 999 999 999 999 999 999 999 999 999 999 999 999 999 999 999 999 999 999 999 999 999 999 999 999 999 999 999 999 999 999 999 999 999 999 999 999 999 999 999 999 999 999 999 999 999 999 999 999 999 999 999 999 999 999 999 999 999 999 999 999 999 999 999 999
999 999 999 999 999 999 999 999 999 999 999 999 999 999 999 999 999 999 999 999 999 999 999 999 999 999 999 999 999 999 999 999 999 999 999 999 999 999 999 999 4.4395112176574986762 4.5204224464080224877 4.5249825962020748804 4.5300392159311861917 4.5296682955515263913 4.4996436651882198987 4.6794349780497190849 5.8298229200352826851 7.9774902565426826229 6.9062382714792622806 5.8782581466206655918 6.6817697839045679942 8.0297149556553470973 9.2560088781713112382 7.272904767051469932 8.542005009358126344 7.1069638195374471579 8.1043995689531307391 8.685201045662463315 11.765294847329814232 17.069421960862598553 14.926529359657660478 16.372050898808311103 17.576573898898416815 18.311076597300161239 19.677692156696380721 19.611929097707275105 20.929622422721504194 24.57086888423605231 27.071088859380928682 27.708420409705542653 28.979696745978856143 27.012625863352191402 28.177914209886225194 31.950946955724717213 35.88910035712930835 36.675729523283933986 34.936716161497535893 33.693903384416536539 32.383952937572551889 30.745378381094496945 29.758600853552596988 31.156695946248145646 28.454685931613095562 30.727196534898350677 28.328440174366338766 21.057824309978151689 14.685257140028896927 14.278974299992700736 13.433775356337617879 13.518874262884004622 13.211689546303194476 13.031571476424145928 12.788156181349974005 12.37530804271612439 12.118351425393234067 11.038329062980164252 9.7935700286210956023 8.4765781392388603876 8.0367934978943456059 8.4867918317310486742 7.9204216530891686787 7.9400791325699913159 8.0507953272562247093 8.1369823873143634074 8.1331715776493815895 8.2691411489212782726 8.3676306298726910171 8.3448506334947349927 8.3846045170225025345 8.4365022136194216529 8.5046115207388979229 8.5413193959475979256 8.5258444124357914973 8.5918571737727269522 8.6750224241559443783 8.6028435621118610754 8.655142774059884303 999 999 999 999 999 999 999 999 999 999 999 999 999 999 999 999 999 999 999 999 999 999 999 999 999 999 999 999 999 999 999 999 999 999 999 999 999 999 999 999 999 999 999 999 999 999 999 999 999 999 999 999 999 999 999 999 999 999 999 999 999 999 999 999 999 999 999 999 999 999 999 999 999 999
999 999 999 999 999 999 999 999 999 999 999 999 999 999 999 999 999 999 999 999 999 999 999 999 999 999 999 999 999 999 999 999 999 999 999 999 999 999 999 999 999 4.2798813533549582289 4.284659799839979577 4.3282348956673288853 4.3695377821057155288 4.5169274371743330931 5.3132423525492189498 6.432354608395488782 7.5927688599927414259 6.5629729193178478752 8.1305974129367175607 5.5153026731313117281 6.1623453773316834159 7.502017261001775239 7.4807895043951120329 7.4125586379476535726 7.614378529656250727 8.3111894113172706255 10.742728476490567502 13.120370866752065098 16.441932944524989324 20.271050854306782441 19.441315421419844256 20.995085489652733912 22.282537545342609775 23.600299213341081384 23.154863704616470699 22.776731484958112617 24.004180858770943985 24.700405497394221754 22.44085701764566565 20.701290883744793092 20.161269389663459606 21.240155555324445658 23.812802831083633492 27.607062292970606876 31.155690622806691437 33.183020413281873573 31.818748064144113386 30.425425938869416598 28.23453422294226911 28.21772710961838726 29.376190592916071154 27.410209534093592509 24.729491696256857836 24.067871316988842523 19.521618136992739068 17.089450945329460296 15.943622981584667286 15.076997840531241479 14.32585209281882932 13.69369350536851826 13.240025708247110003 12.723143359348071613 12.598388881660573801 12.238484840150862354 11.683045770359139937 11.058251176147932071 10.110338990385802305 8.5225581846650104723 7.8181799602981252306 7.9582630386928236987 7.452218113255016263 7.8754347252935295032 7.9962630602247024569 8.1186891625703854203 8.1971672409584783736 8.2739292730118858543 8.3474732034008809478 8.368509408392663218 8.3552161247605827299 8.4136724067626893486 8.4533468022632352046 8.5194699389043577753 8.5371838226821505913 8.572086161699612461 8.6588370735215534069 999 999 999 999 999 999 999 999 999 999 999 999 999 999 999 999 999 999 999 999 999 999 999 999 999 999 999 999 999 999 999 999 999 999 999 999 999 999 999 999 999 999 999 999 999 999 999 999 999 999 999 999 999 999 999 999 999 999 999 999 999 999 999 999 999 999 999 999 999 999 999 999 999 999 999
999 999 999 999 999 999 999 999 999 999 999 999 999 999 999 999 999 999 999 999 999 999 999 999 999 999 999 999 999 999 999 999 999 999 999 999 999 999 999 999 999 999 4.0679351622190296212 4.0984940459455190265 4.3873398467911632892 4.9216253349469063494 5.767087605502924319 7.0995696051314700625 7.9651565579758099034 5.8089280520625452553 5.5272352854899793329 4.3275155041303747794 5.9309193849508021756 9.3578803318531544875 9.7024222335609913159 9.5318762909845222708 9.0983733364093133389 8.6169905656033236596 9.8986497410803746533 13.645293590243285919 16.295135151794191586 18.415898590727092454 19.367221297297653848 22.012831000601849496 23.838424389784492519 25.285597591050322563 25.746583442769232164 25.95364815597176289 25.744799009919720589 21.69540122756050593 17.342640984754325473 17.320628822681332082 17.60745781547660016 18.12142991864639896 18.961390486497556651 21.746946503583171051 27.114110108701769519 30.317704469038769588 29.946869006327951013 26.596031214937347897 25.682923887996096823 27.360082124632786105 26.434320821043392868 25.822418872520035649 24.630600487847903679 22.460435596690459192 20.239383534660490227 18.041100336817105898 16.746355995283618512 15.844492380438151002 14.780333415170614941 14.127353603317684971 13.343913058336221766 12.840499905391167701 12.63440981327041257 12.496316228027037454 12.306653836064883834 13.181756274930226169 20.509331073431177117 11.031489957251780609 8.1489460854960853453 8.0184466605478501577 7.7577949968977861772 7.7875460887643628283 7.919740716292731797 8.0706295529543368161 8.1167983667031169404 8.2190024094384934727 8.2554936285799804807 8.3444763993917145939 8.3354160146760598593 8.3870570572909599605 8.4032173420040106038 8.4153781106932168399 8.4278970560806438783 8.5496630550732017895 999 999 999 999 999 999 999 999 999 999 999 999 999 999 999 999 999 999 999 999 999 999 999 999 999 999 999 999 999 999 999 999 999 999 999 999 999 999 999 999 999 999 999 999 999 999 999 999 999 999 999 999 999 999 999 999 999 999 999 999 999 999 999 999 999 999 999 999 999 999 999 999 999 999 999 999
999 999 999 999 999 999 999 999 999 999 999 999 999 999 999 999 999 999 999 999 999 999 999 999 999 999 999 999 999 999 999 999 999 999 999 999 999 999 999 999 999 999 999 4.235346046489397942 4.4569412916505610767 5.2702460200926655176 6.7149697799559415756 7.8766704957151860711 6.9790503791915465825 4.7535661163514628669 4.3234099272756356669 4.4782899472652930584 5.679566786780862131 9.6848446631763618342 7.4755117657864200709 7.9638957259370704023 8.3988558156364412355 7.6292546336372826232 12.349552513934753506 10.944063359793775092 13.332105938751153573 15.838161439786581752 17.550622470615412141 19.183606152088483299 22.440318927045314723 23.57971167151964309 23.659544908137362995 24.314664546495727393 23.655714249067216315 17.972870820067733177 16.929467304595785748 17.356692441931151905 17.402712763215184566 17.801684764086292745 18.270007249185280074 18.60332834720748707 21.048825063712698125 23.914256654378100109 25.020190150132016527 22.625319710685769081 23.35799314562737905 24.477936275307651925 23.769702414583896655 23.262208366472325594 22.131183598544243551 20.807496971287594789 18.5456822354828752 17.163645930831140873 15.929397878537617572 14.427929792231154238 13.846452379828271262 13.302203055394052456 13.383256207096792423 13.068707735507006262 12.667312008527588318 12.579173599537528005 12.514941769896349655 12.676143431373469994 13.352795098740097401 12.738760062060237033 10.894418589282926391 8.1057929107806945268 7.987926251179679582 8.0182910971028800162 8.351863680030868764 8.0610535215707876944 8.1192682334021988311 8.1423902219792232415 8.1242927128136539494 8.1849126255808997144 8.2133561097140894702 8.2411836716600301855 8.2906902774222768215 8.3170291108854765838 8.5053112518306193124 999 999 999 999 999 999 999 999 999 999 999 999 999 999 999 999 999 999 999 999 999 999 999 999 999 999 999 999 999 999 999 999 999 999 999 999 999 999 999 999 999 999 999 999 999 999 999 999 999 999 999 999 999 999 999 999 999 999 999 999 999 999 999 999 999 999 999 999 999 999 999 999 999 999 999 999 999
999 999 999 999 999 999 999 999 999 999 999 999 999 999 999 999 999 999 999 999 999 999 999 999 999 999 999 999 999 999 999 999 999 999 999 999 999 999 999 999 999 999 999 999 4.5667373730398397313 7.9142445280677256036 6.4619767885908574456 5.3281665743288888493 4.5503154316947114211 4.0688052871127364796 4.2164008744620984359 4.3167920684917415741 4.5378280326891706764 10.00206910388185122 6.7405887659670966627 6.3303760680225753532 6.8267159229597664805 7.0273775258536659294 7.2661202226686949501 10.623412087528565806 11.535165279668577298 13.701275533394895234 13.569866102714458478 15.165157083955772777 16.111163359806578654 16.951265882609828139 18.790382506403194185 19.948804893405874594 18.661869565359786804 16.972247015484125399 17.096853387591757212 17.327253334254706374 17.541461506583100771 17.806069630159875317 18.091923574764372518 18.217378708557006917 18.693337048152567803 19.403979094157847385 21.721354017584786789 20.536727751367351402 21.19918133755203371 21.314200081488898775 21.347128848495621867 20.402390269394771849 19.226467966352913663 18.131444298074242738 17.376701006732385935 16.075057050339619735 14.842815347167380935 13.559041973701294381 12.914626630371587979 12.744709311510698413 12.494097391109665551 12.667333519859640845 12.812189058473130387 12.323736238894724693 12.483092052546945538 12.392920019175809543 12.428540689069487613 12.492067535317934457 12.37514129774342031 10.450801458623972806 8.955037706529783037 8.0729977366551146645 7.9260918356944047858 7.9275847428903878367 8.0361262599768643611 8.0780132474742796234 8.0928890009403193773 8.2665954828887251438 7.9263429016582076514 8.2622591247076844212 8.3995818014422667375 8.4097595003805167835 999 999 999 999 999 999 999 999 999 999 999 999 999 999 999 999 999 999 999 999 999 999 999 999 999 999 999 999 999 999 999 999 999 999 999 999 999 999 999 999 999 999 999 999 999 999 999 999 999 999 999 999 999 999 999 999 999 999 999 999 999 999 999 999 999 999 999 999 999 999 999 999 999 999 999 999 999 999
999 999 999 999 999 999 999 999 999 999 999 999 999 999 999 999 999 999 999 999 999 999 999 999 999 999 999 999 999 999 999 999 999 999 999 999 999 999 999 999 999 999 999 999 999 4.8318057465963173414 4.5030667424353616468 4.1610684750692481515 4.0583699148517746735 4.1531633535764145293 4.5184066716916664319 4.2435232593515532784 4.1303646029302498732 5.6616933400610429672 8.3802004403203689265 6.8140222896210875803 7.7936586378518875051 7.9959168607224055947 6.4926341702344672058 6.783184142283239737 10.013740289703358499 12.199050561166259854 14.728458650630351201 15.85645897102173052 15.275091360823964237 15.825886953359491471 15.71555684065522307 16.35115521094457236 16.572942713514752455 17.120307656442896871 17.304956634584762298 17.333592355163126797 17.602517221894508737 17.983775612677835198 18.113248915988307886 18.160509481396267972 18.347068880831852056 18.672624152671208009 20.443335634638291509 19.4240152417723273 19.590201660181236321 19.399767632976505638 19.177459367840896221 18.817895491197941027 18.295533845138162832 17.393004982794444402 16.280066710448743095 15.086856588188604533 14.318417252387220628 13.060717991912804692 13.084715106714062571 12.571084227481719608 12.648190091066275897 12.96116198148705756 12.791025744177392909 12.566811878619535747 12.534446655801751547 12.120416180245889848 12.01401396834340396 12.051716757783195177 11.981160381438444418 12.317031080404658994 10.769763095831084598 8.5204969536451908851 7.5333464105194316573 7.6287768964359541357 7.9285227428338806988 8.1456346948308588907 8.1271530232477129374 8.2002492936318382988 8.2348441386466326719 8.2706402290347771356 8.2788485687176365246 999 999 999 999 999 999 999 999 999 999 999 999 999 999 999 999 999 999 999 999 999 999 999 999 999 999 999 999 999 999 999 999 999 999 999 999 999 999 999 999 999 999 999 999 999 999 999 999 999 999 999 999 999 999 999 999 999 999 999 999 999 999 999 999 999 999 999 999 999 999 999 999 999 999 999 999 999 999 999
999 999 999 999 999 999 999 999 999 999 999 999 999 999 999 999 999 999 999 999 999 999 999 999 999 999 999 999 999 999 999 999 999 999 999 999 999 999 999 999 999 999 999 999 999 999 4.0917084282738134249 4.1464430093694977231 4.0922373652458166049 4.1179391644356106994 4.37178186868474139 4.0393079548039043658 4.1456036829444782299 4.2871477951277396912 4.5577820116808460682 6.1002217334273742821 6.9367623836521943304 7.7049670837728614359 6.3600515956929175587 7.0525584749910530391 7.3194664116240710783 10.383701613844817047 13.112836575877743428 15.925354028408126084 19.776012785137957906 21.435780330221671619 16.224573180420961194 16.157336413998628188 16.460170944948984584 17.034965599043665918 17.814398950972986313 17.507065523861768952 17.690188839777217567 17.996038311673121513 18.276219158460140335 18.291342895953945913 18.382106314849245621 19.20328328813455343 20.232823042414679549 19.403842675406774987 19.297151230208108075 19.266393375352432571 19.079421592199366842 18.692443199800063525 18.14947931659122915 17.240264020498830888 16.15769618893869719 14.681241385495480856 13.770304675045613507 13.43837623137291537 12.807053535559266066 12.380817060372246274 12.408309956393409834 12.338455373002926052 12.431432461087096542 12.411092628392601966 12.33784441909068974 12.232200191063324013 12.016835112377119543 11.900525371494094173 12.088113789675158927 14.147987741431252928 12.018011995267949388 9.7747417348691829631 7.6462507141643056841 7.6804272994627336146 7.7984541703454528516 7.8819581623339587395 8.0784450618977192704 8.1293414113183839476 8.1808891339893570205 8.2035919814275093387 999 999 999 999 999 999 999 999 999 999 999 999 999 999 999 999 999 999 999 999 999 999 999 999 999 999 999 999 999 999 999 999 999 999 999 999 999 999 999 999 999 999 999 999 999 999 999 999 999 999 999 999 999 999 999 999 999 999 999 999 999 999 999 999 999 999 999 999 999 999 999 999 999 999 999 999 999 999 999 999
999 999 999 999 999 999 999 999 999 999 999 999 999 999 999 999 999 999 999 999 999 999 999 999 999 999 999 999 999 999 999 999 999 999 999 999 999 999 999 999 999 999 999 999 999 999 999 4.0672197756965999815 3.9871498334191510793 4.0998751338636818531 4.264898749282334478 4.162832827098458921 4.0326653294728229682 4.090928898440512107 4.2174249551176608009 5.2199808513461425363 7.7480954279659375317 13.162063540651049109 6.690011881247196257 6.3137535466335910073 6.5918217521969184602 7.204298712796594728 8.5456862416010608285 11.403077039669970105 13.29769292273765835 16.134236527412692652 17.284530688838724899 16.21847287678187044 16.585330565501795519 17.038081478478453334 17.256880308124124213 17.48870093945655313 17.792835386874951809 18.084674237894368787 18.25078889630810508 18.421148690319984809 18.495515109471320159 18.663753221070194854 20.659581429352048332 19.255807165178865148 20.87020507011825643 20.46931739960428942 20.467815438159316699 19.044338610733273498 18.138191905149920302 17.251469204472897445 15.852407089103280668 14.288918555045411196 13.445060553422543137 13.232248771486894157 12.677355938990777062 12.282870775560040144 12.92440645316079717 12.442032125800029263 12.62517283892224107 12.654937143313471637 12.645424155709948266 12.375335053769108029 12.143990402126281225 12.048293066426044362 11.965213205870725233 11.762463314603158082 11.515941371000641524 10.835051906161986324 8.344832127145426881 7.6123978083076178081 7.7157917010275474112 7.8523995788012550534 7.963955807959483657 8.0321511490771051456 8.0765561949469777403 999 999 999 999 999 999 999 999 999 999 999 999 999 999 999 999 999 999 999 999 999 999 999 999 999 999 999 999 999 999 999 999 999 999 999 999 999 999 999 999 999 999 999 999 999 999 999 999 999 999 999 999 999 999 999 999 999 999 999 999 999 999 999 999 999 999 999 999 999 999 999 999 999 999 999 999 999 999 999 999 999
999 999 999 999 999 999 999 999 999 999 999 999 999 999 999 999 999 999 999 999 999 999 999 999 999 999 999 999 999 999 999 999 999 999 999 999 999 999 999 999 999 999 999 999 999 999 999 999 4.0751168393827779113 4.0325989243793838313 5.1977641769913978109 4.7328397513247315587 3.9503818515510746856 3.9576376910500341566 3.9465367717932249292 4.5755107830275356662 4.4297101222418069355 5.7449789992410416062 7.3276182071655382444 6.4587698886163362744 6.615927177468131859 7.3491145561046904433 8.5804041949367011455 9.4260909229130671605 10.842812120330419745 13.798492655992095735 16.144129047868506888 16.205940903545371867 17.763824296594197705 18.985771626096248355 17.982059306628944029 17.533132078231140838 17.855559198481358862 18.16970001745229979 18.311166782950039078 18.437190106771758735 18.537377737003694733 18.580481851007995431 18.699550193658879493 18.800502423318864231 19.127130890684661324 20.204004323514446639 20.049508444490449222 20.064843786231673306 18.607453002183252266 17.295193292071797231 15.880202268544838518 14.463715920027226502 13.496316103822655563 12.903835407233122723 12.545158661392436628 12.782005828600736308 12.512971964584759021 12.402550140144134261 12.537809354712639021 12.5387784863845404 12.485709406673599631 12.216988254788539336 12.244992961728843994 12.147557230791329985 12.008985550015303545 11.544396923881651063 11.394471698671315707 11.569421971696632667 8.8118016340144809107 7.5981044815758886912 7.5960829928727209293 7.6966663312754910464 7.7859490991537034787 7.8684300235622925968 999 999 999 999 999 999 999 999 999 999 999 999 999 999 999 999 999 999 999 999 999 999 999 999 999 999 999 999 999 999 999 999 999 999 999 999 999 999 999 999 999 999 999 999 999 999 999 999 999 999 999 999 999 999 999 999 999 999 999 999 999 999 999 999 999 999 999 999 999 999 999 999 999 999 999 999 999 999 999 999 999 999
999 999 999 999 999 999 999 999 999 999 999 999 999 999 999 999 999 999 999 999 999 999 999 999 999 999 999 999 999 999 999 999 999 999 999 999 999 999 999 999 999 999 999 999 999 999 999 999 999 3.8698098444063573353 3.9632761908649731808 3.9897277540897926329 3.9485545329645099777 3.9004436634148489382 3.882501039003643406 4.2242075305170754262 6.9214054043132184901 5.899565257200639401 7.6210791767636907323 7.1588316413693950935 6.9948413346307924954 7.5635981207117755076 8.634503302946100689 9.9459151354461425854 11.591143469626207008 13.292103822684145698 15.143023531059581543 18.332069266336507241 18.815655029259644948 17.154628839317719979 17.514269124863737659 17.971785642995250498 17.899447607596460585 18.319847110800981937 18.59390005331309581 18.686655026301611571 18.690873302621589858 18.76832539696880886 19.543938522942511327 18.609301774046659972 18.620198822862580101 18.549949621603861516 18.476488300256129094 18.402775326602185402 18.652907367292378638 17.238877389520411043 16.226036687245155576 15.029842653072902792 14.090119171666902531 13.072698554801869264 12.544205419789488332 12.374254284740104026 12.364847422075373018 12.408852400688168416 12.437112375202071135 12.325566708956365858 12.368302684998516483 12.574509179149055527 12.264350952966973196 12.180254161632818821 11.936364039168291029 11.270816514924680618 11.093004534573392306 13.607724595416517133 9.348500329741810333 7.4952605994912238074 7.5200188302837283061 7.635547569997662265 7.6724502769858169415 999 999 999 999 999 999 999 999 999 999 999 999 999 999 999 999 999 999 999 999 999 999 999 999 999 999 999 999 999 999 999 999 999 999 999 999 999 999 999 999 999 999 999 999 999 999 999 999 999 999 999 999 999 999 999 999 999 999 999 999 999 999 999 999 999 999 999 999 999 999 999 999 999 999 999 999 999 999 999 999 999 999 999
