ncols        192
nrows        38
xllcorner    1771145
yllcorner    5472184
cellsize     10.000000000000
NODATA_value  nan
999 999 999 999 999 999 999 999 999 999 999 999 999 999 999 999 999 999 999 999 999 999 999 999 999 999 999 999 999 999 999 999 999 999 999 999 999 999 999 999 999 999 999 999 999 999 999 999 7.6363774277698865944 7.6904244668359922343 7.9485086249908425415 9.0279993487769374383 9.8248428111983301392 8.9497282919662115575 11.049242246138168966 9.2940295596442457082 12.884405382970578913 13.903714683462894186 12.087204149326097991 10.723350780879759014 10.515136292261141548 9.7586481611967386129 11.453197295198604522 6.7604079969407413486 9.8535502319855652331 9.4136306497278212646 11.987739516367039272 13.443567223268749089 13.251454631495473535 11.210672247626581211 8.6524355225071314379 6.9858589380226039367 7.1848387075875717045 7.1937380218723427916 13.069518044895705344 6.8029029668862506242 6.8459012877757468019 6.9064897442143493578 10.874521934245652943 7.6349898356281347134 7.4775704109925102969 7.534682618234545437 9.6342382420913654784 21.615294977478928473 17.479000181925787416 8.401459619200180029 10.030744488999451036 9.6403997032161896641 10.972403504878112557 9.5036978494642241344 7.2836819747625245469 6.8782587323434940529 7.081166066788449065 6.5011900041962755736 6.5907343918057463839 5.741190672781143256 5.8471492983498611906 5.8947459834220641284 6.0055172143359714099 6.0646745691889201169 6.3512869113692271839 6.4064850937126713859 6.2633840713959774149 7.5832749755923876123 7.1678265182464944161 7.2309782768381607454 11.790177656305912635 8.9186516063411946931 10.61686189419705606 7.6712871949130061466 8.6825834232849121719 7.9128165475413547725 8.0374092043364466775 8.3892459293032395351 8.5606157587834452727 8.4488035665739165125 9.2275374682610706856 18.199049176713206322 19.209075351422260525 20.081564119165804527 9.5032565751967865708 9.4675622040972431392 14.788539192567528247 20.443944156599950901 9.9010281168483835756 6.9294990901732562705 6.7855517835673646587 7.7966952319905207247 19.628335322539758323 19.049435815458970467 18.737862743360764739 12.476758439344212803 10.556358567518772773 9.4191593297909612659 9.2690181376946423342 9.2335724779900196779 9.1094405855332780675 9.0485963984818447159 8.9942047508253004651 8.7451269627157603992 8.7996762868484488251 8.7406033650158558856 8.6557629894265488701 8.6327573952452549833 999 999 999 999 999 999 999 999 999 999 999 999 999 999 999 999 999 999 999 999 999 999 999 999 999 999 999 999 999 999 999 999 999 999 999 999 999 999 999 999 999 999 999 999 999 999 999 999
999 999 999 999 999 999 999 999 999 999 999 999 999 999 999 999 999 999 999 999 999 999 999 999 999 999 999 999 999 999 999 999 999 999 999 999 999 999 999 999 999 999 999 999 999 999 999 999 7.5809422328920970102 14.596780155087451192 8.2257114277378917677 8.8968365816633934173 9.7847734685371801078 10.655031362308653442 8.0548365637432333131 8.053975392515848597 8.1643335776539096571 8.9767110066115325395 8.6420439225564535946 9.7386244880559065251 10.5131818263911061 13.944948076665582448 9.7336771119133214114 9.2174219923046472047 12.901642866519990704 8.921266887210997254 11.817611504750004769 12.503120890753208982 11.303118832677302663 7.6891874886615783069 6.8174143050121696064 6.7053409914892379007 6.9035805609715303888 6.8321440580114751739 7.393162535582784578 6.9874307919632796526 7.580140091128473756 11.322099049452230446 9.432944338165434317 10.148472323251683136 17.074100034942290449 14.41478635068489389 10.659271264749463626 22.639722078813541373 12.749206460677299901 12.196229818945230505 10.470840843822672994 7.6416197021121696764 6.6518777872516867689 5.7924405373984777512 5.7604942741930917904 5.7957359461424999836 5.9810997823993394817 6.1160914996806585719 6.3590709324271772473 6.4875350501876498654 6.7145007364889721657 6.9789187569920150267 7.1826972847530727861 7.2589979126046975111 6.9711915903440671016 6.6492649994790351542 6.7453641279342129167 8.8458290078344106178 7.8084148208352210929 6.4532850979024285465 6.7097036425127525305 6.9779783743244312433 6.8432859686011058287 6.4884486722127556746 7.2984226774725762255 6.9231187414267836289 10.266792687231808046 8.9835808932790470749 10.24191995897129992 9.8739449710199842514 12.456442601304141604 22.630227881116066868 18.582953695291450913 12.373222932734298851 8.5061142614790909988 10.382185062917873353 9.6064898106622162999 14.975251165883706861 7.6805723943779007357 6.6159382983250765164 7.3363518207303011209 8.7761188813188990565 19.897978106788304586 10.466675222231298648 10.418701009788939871 10.588938084834531139 9.4954226660933915838 9.2416664083577568789 9.1917434488457683273 9.1043162671948092424 8.9285081187981685247 8.9281185876255051426 8.7356330137228432875 8.6072364221788877359 8.6162182041312593839 8.6597232934432319951 8.594291333102981767 8.6416886835882973372 999 999 999 999 999 999 999 999 999 999 999 999 999 999 999 999 999 999 999 999 999 999 999 999 999 999 999 999 999 999 999 999 999 999 999 999 999 999 999 999 999 999 999 999 999 999 999 999
999 999 999 999 999 999 999 999 999 999 999 999 999 999 999 999 999 999 999 999 999 999 999 999 999 999 999 999 999 999 999 999 999 999 999 999 999 999 999 999 999 999 999 999 999 999 999 999 7.5265616944395885568 9.2994715858004273201 8.2715150293046768581 10.923990389606899498 8.2415379006426690012 9.4512096575291533185 9.5969830847177046707 8.7141800514015077539 9.2810730099527845027 7.6944992095086659489 8.0441765946987970892 9.9565252391482470529 13.486792481985139247 12.208363429926581745 9.1880397291031119522 6.2351103608650628729 15.100477876101914276 12.44304093578410253 13.035935305493284275 7.6119708905789611464 6.9327542833428443814 6.5677297134163596937 6.2488322739381700899 7.6773837682186663045 6.70659113026548237 7.113521253405624023 6.8462665256139239034 7.1106208789323819275 7.6657029803167882065 12.55109317040210648 26.241785303082252767 30.143801990126654289 29.646047427967928911 26.163939456821452723 10.292392531445569759 10.281433625417927047 8.1724625057986202137 6.4125254099943500563 5.9780100157348901035 5.8186256151234303502 5.7266949432794413966 6.0180020905926259189 6.2538968528300884486 6.9204440654615071438 7.1595115546074854507 11.240666730030916654 12.150389348009388968 12.781838827153611859 11.844136238279750373 10.376821673585554962 8.766244616100889786 11.544568573189648575 13.942208975347222477 9.1027374005481345165 14.876106919271288476 11.057597792613400145 13.616319650894022075 11.218666957117367389 11.37873987327184544 9.1260426073497633581 9.2629446665855645904 7.1643499089252813405 6.5370004695566104047 6.4742161438587233491 6.6178149319781516269 6.5411900766427830689 6.9236937342025006714 7.2274549312702882631 8.7044255840073461172 10.246999047585658715 13.297436144964327909 8.2641305223271341873 6.6120560018396989932 6.8256646724224507849 7.1975756721066987964 7.1774037719724157469 7.3128589209251320113 9.3428140461929771732 9.469617916953904313 11.937206772776249863 22.495702490761953385 10.929590316632141977 10.317278417115353761 9.3643956259129996766 9.1932747063929447506 9.1165559904870629993 9.0334988346252860225 8.9075842423230575662 8.8536167617611916114 8.7910474530135918059 8.5616771040292380945 8.6346548103346254521 8.5522295633212976895 8.4990838417942455862 8.5304717223353758726 8.5792377568362248041 999 999 999 999 999 999 999 999 999 999 999 999 999 999 999 999 999 999 999 999 999 999 999 999 999 999 999 999 999 999 999 999 999 999 999 999 999 999 999 999 999 999 999 999 999 999 999 999
999 999 999 999 999 999 999 999 999 999 999 999 999 999 999 999 999 999 999 999 999 999 999 999 999 999 999 999 999 999 999 999 999 999 999 999 999 999 999 999 999 999 999 999 999 999 999 999 7.48384640269015744 9.4935294538515258012 8.126344731268211774 8.5290668273755141371 8.0995793737085168829 10.249094091289922659 10.32953605061291924 8.4569983991219714881 7.8858906499062548789 8.2553382583062244748 10.750641692536227367 8.5992762343709721051 14.533367386020241696 15.021677366476772875 8.9339819617418747555 14.447838409194663001 12.527479855806689102 18.359593120642358599 15.53678855820439253 6.5724420250370751972 6.0801785778164196827 6.1546796470444933291 6.3417806763189856767 6.6217184707513991881 7.453927080473135014 7.2382603773933942293 7.3649109668163372788 8.5401787017661323631 14.160678509562885097 27.892215205256725596 30.633745872041156844 27.734533617193068977 26.739167489861159765 10.818241221258618978 6.9723008743464891523 5.8602225886989005588 5.6503751081027102643 5.6903301710253471057 5.7474397177442311246 5.870575155059164274 5.9730272973755189625 8.5741355709367024218 11.163720234390021702 9.7471342171164980783 13.857988717290051994 20.458026985790059626 19.04974819022614696 26.823425232758481229 11.427461092361580697 15.943337265460581165 22.702765275847387016 23.643921686923686565 12.024462142286603594 19.002607107211289872 23.836717795786583451 19.1046334490595342 9.2724748424674245939 9.3143318150701190916 8.7034863395605253089 8.6537320205813337282 13.930394091755854191 10.929644027901710857 10.756955133086762544 13.76635351244204486 12.29082093059354186 10.051705468557704748 7.9063732498455205899 10.679092983692417107 10.220461821946058123 7.2719973567370335132 7.6378607835796783476 8.1508439244116939193 10.002450114464954467 9.3658380825516704959 11.521491351613422083 9.1043773156278451353 17.347741486961666624 22.973576292422926315 23.588405161286420508 23.015032139646226739 10.570931703177389949 10.465675452354055608 9.2668103992865251683 9.1844484885429249488 9.096029901997223277 8.9048157525917979171 8.8092872336395640076 8.7530222968478117451 8.7652830715295593222 8.5880971075837972961 8.4954905716203619193 8.5704365462987972535 8.4630522234942482385 8.5358321764000191223 8.4254560087576759742 8.4616569010440105814 999 999 999 999 999 999 999 999 999 999 999 999 999 999 999 999 999 999 999 999 999 999 999 999 999 999 999 999 999 999 999 999 999 999 999 999 999 999 999 999 999 999 999 999 999 999 999 999
999 999 999 999 999 999 999 999 999 999 999 999 999 999 999 999 999 999 999 999 999 999 999 999 999 999 999 999 999 999 999 999 999 999 999 999 999 999 999 999 999 999 999 999 999 999 999 999 7.7969841258049257249 8.2284285546736963823 10.275128658424865336 7.9434027128492328274 12.109776810297841365 8.0076933731027697405 10.296857571576165213 8.1509793291874341747 7.7335231505089030435 8.5087860454412762579 10.998144032857901209 11.407970615868769926 13.155377116432482865 9.3224819717965043964 11.062860439530414425 13.630821243468046688 17.124898182610344577 13.353336459469344888 7.1841075812744685791 6.0120210028881047037 6.0552979282374392866 6.3096662948487782785 6.5419107899427304531 7.0526600196694433365 7.1502713036898333243 7.3333862007225150137 8.8639744726839957423 15.574656401332749311 26.558021759052241606 20.556094987020443909 20.831234646367210672 12.591004035308664299 9.0374340685893450598 6.2881312607881278964 5.5482590859493683411 5.5822127658042388632 5.6650344869021500571 5.7886532758173387947 5.9245436832126507909 6.3163800929264537487 7.0848966794102219424 10.429472219367195152 12.765671785103865687 23.33114037629565729 27.319556231257557499 28.106054884303059538 24.096146550493106275 10.050798262296190444 10.25484717561488246 16.515819278661023617 13.185821358992512842 19.416281407642795642 11.057288143594105279 24.969836230601597293 11.630529411352638292 10.644973226404484734 12.768450851389580691 16.266701290491823784 19.502659855858592408 17.632118707085815856 9.4774828614646668967 9.8256930289321342542 17.252184628456401327 18.342356659013621112 11.572386694983864075 8.6182116352455402364 15.585623605082391308 24.874770070081456907 23.670612448626922486 20.225013573229876584 11.338873706669083674 12.112655060448087596 18.472609810234164485 23.20551850374880587 24.581685419357970801 21.22621777567812984 22.020262026948618228 19.508864028413260172 15.666109252219701631 12.36343701730826794 9.9242792624217894826 9.0526484180098893972 9.0026923563625498304 9.0303037689552176914 8.8193909047932503853 8.7505506033452515879 8.6712640385844945712 8.607051857775335435 8.5357413113794731174 8.4327423509431351789 8.470353259163704962 8.4618403120471299417 8.4426827524335052999 8.4249641425562575847 8.3709113454355712491 8.1804489555224240149 999 999 999 999 999 999 999 999 999 999 999 999 999 999 999 999 999 999 999 999 999 999 999 999 999 999 999 999 999 999 999 999 999 999 999 999 999 999 999 999 999 999 999 999 999 999 999 999
999 999 999 999 999 999 999 999 999 999 999 999 999 999 999 999 999 999 999 999 999 999 999 999 999 999 999 999 999 999 999 999 999 999 999 999 999 999 999 999 999 999 999 999 999 999 999 999 7.9545013376899946778 8.6301688740410575917 9.8548634599972793069 7.9295743027197014285 9.6471129416416196989 8.2416430032834835373 9.6437780747642474211 10.237675847194269707 9.213908598014223017 11.125074129073880158 13.998622255368216472 8.7336723390014014967 14.738468559245614387 8.1429059728898849357 14.269038024850210888 16.618290031514856508 11.989647768764234215 16.854011171741863251 8.4299641793293726977 6.1045148044876782478 6.2671766968734976544 6.6632549540922507703 6.9852997630509134908 7.0511225249581901409 7.2461428845742421601 7.7677267982015667513 17.772485636826374389 24.936539989079090418 19.281400307059119115 8.339491259666539591 9.3984972057814815116 7.3366956047186917544 5.8514180152986234873 5.5616970694826157739 5.5151463161605693841 5.9649657676860590172 6.3996961775146354867 6.6197374222781091291 6.9749971975350284481 8.986167319772402351 13.448246922314300633 15.662173801338610701 22.689441910115757395 27.003789025449531636 14.064041165107660447 22.241884768760076696 9.4784425039462405493 8.5471351523930714222 8.4715024806653342893 8.5002653092832662907 8.523781141229138214 8.8650290180059876377 8.7291524233769610674 8.8141539295899331563 8.7415394793790603956 8.0758642984620720995 17.299847840672075705 20.073469851312431445 20.342253209539958192 18.018557701369676494 13.231458529179384698 20.296590047266054313 12.970271238159147842 18.038571275457407239 20.469447979742046329 11.768508540978253052 17.206266593676939891 16.892774223209936935 12.034841291422457843 10.555938063595341703 10.357736368241331704 13.621473339707945271 20.022076914722461538 16.025704457236336964 14.659481562813276412 12.792958540031891701 11.532514723870439965 10.856872916189162837 9.4333952025445810818 9.1349764374737318917 8.8989056655148939257 8.8863993371325147308 8.7983748872349671899 8.7716428441713532038 8.6225576509981465279 8.5570961115345536285 8.5020719113893346019 8.4964936911045807477 8.429082323135540733 8.3376009854419699252 8.4170791160923403851 8.4336709300366372588 8.3763958258399657808 8.3427457685255657083 8.5198785815798547816 8.3991789092614244083 999 999 999 999 999 999 999 999 999 999 999 999 999 999 999 999 999 999 999 999 999 999 999 999 999 999 999 999 999 999 999 999 999 999 999 999 999 999 999 999 999 999 999 999 999 999 999 999
999 999 999 999 999 999 999 999 999 999 999 999 999 999 999 999 999 999 999 999 999 999 999 999 999 999 999 999 999 999 999 999 999 999 999 999 999 999 999 999 999 999 999 999 999 999 999 999 7.3649929606661466153 10.214177256947934325 7.4062194397335359142 8.2148987838413614071 8.0739182138482039619 10.325757494982712004 7.5498590104328826556 8.5007399283368627607 11.348367468089540111 10.890145376829599044 11.813856792772593707 7.5250041976749981743 11.767474376113115753 7.3926029374715183096 6.8541145316741083349 10.566091651594737399 17.669344478201605142 6.3449927495987834547 6.355447122838943308 6.3802644273718511769 6.5928605158356790028 6.873370156872491421 6.9252107746319300219 7.0769295844294051179 7.5139421700668282966 14.325470538074691618 25.852524500391201201 24.392947522028535445 11.493491400980902384 8.109638300927569432 6.2854749474350528615 5.6290337933626553024 5.5120778981380746941 5.5804797674921369222 5.8400472573539730092 6.2636189171585874291 11.756356188406074992 7.7611693334959692692 9.6077635350693988414 16.360010343014447898 27.135313145427389259 22.856576566897331304 25.946112439258666171 16.712631824060100172 9.0273318183249013913 9.5984151587224548763 10.401420773919969776 9.375446854587723422 8.6084148257230701518 8.4021002594265290497 8.3973288638361172076 8.7106421282301074172 9.7558060950195120142 10.068281021140649045 10.188298927790876647 10.050280367212740984 9.5096959037740678156 10.144009613224072908 9.3246852298142997029 9.7886513338860137168 7.4122731946871063258 10.54072841713646369 9.0256323803324178812 8.8781846479696859831 8.3814030976405522466 9.0047119819147827258 8.9365304878489268958 8.9289046512892333851 8.2828886614609160688 8.7231935980159587274 8.4740676400359529197 8.8313357977799640253 8.8620997004301464983 8.8383255937880065289 8.8927810234922990418 8.9792973325326901346 9.1653151387489781854 8.8921061963027803188 8.7841812528414866534 8.6403944954065039497 8.7409553505987354072 8.6715463898402642684 8.6175748119237010059 8.534874919668869353 8.426937440202150853 8.4665740790693746476 8.3939299991131122169 8.3887154353771560267 8.3822925623209521007 8.3650265709814686232 8.3356241794854106786 8.3627394660697262907 8.2159333808920642639 8.2043234360950787476 8.440528225436237264 8.3198625504993035662 999 999 999 999 999 999 999 999 999 999 999 999 999 999 999 999 999 999 999 999 999 999 999 999 999 999 999 999 999 999 999 999 999 999 999 999 999 999 999 999 999 999 999 999 999 999 999 999
999 999 999 999 999 999 999 999 999 999 999 999 999 999 999 999 999 999 999 999 999 999 999 999 999 999 999 999 999 999 999 999 999 999 999 999 999 999 999 999 999 999 999 999 999 999 999 999 10.394178523301492945 7.9166734942628114169 7.9015946075999803355 8.1625361474735829148 10.789604866996970856 12.565552049029758308 7.9025074501507148739 7.5661483351746436909 8.6626479390967929817 10.601012040809875359 8.8136614481457105086 8.3658592287957418421 11.047740955723188705 5.8181221727331298155 6.4116922980708261903 10.823133310856329459 14.648100698976540102 6.266162075982523838 6.3676157597534848165 6.5027744414833241748 6.605460982959719729 6.6939915794901949653 7.0152797646447462299 7.3329022017607137229 7.8412117967502945604 10.270571780863081202 18.513455152147869853 12.901230551619832454 7.3594426847809844006 5.6232756359546369751 5.4615412748863727543 5.3871738002554003799 5.7326979421605903653 6.2973551063373882641 7.946306932641587828 8.8741206483454515563 7.9195025382266139857 9.5381703441630918405 22.021756707349297244 23.878467426270475471 27.170893660609518605 11.082518859256326849 10.653193451588574447 8.906873509290390345 8.4465086075020678891 10.385127998293285145 11.200009381270140452 10.766758236668488635 10.415467363920212662 10.150180993784468697 9.8834512651439059283 9.5741634377435964609 10.623291002156506124 10.545674700570479843 9.9944338726502603976 10.388715892506168004 10.51308181163401656 11.009130767010987029 10.431073076664230115 9.1517345748095682012 9.227174037317166011 9.3308959347668878337 9.2460459848544616079 9.4765958134631329557 9.3524489031058219979 10.385616232697595152 10.031271993229170292 11.135282269929060561 10.586526533947086648 11.856959093690159435 8.7996084470102839958 8.5894808418786077198 8.8045477141931947074 8.5315070405929152031 8.0927410080943662507 8.4266217822510931512 8.4827742206107767942 8.5595460967926193518 8.377523693527409776 8.3766245190446699809 8.5174451658044905145 8.6059721093704482087 8.4729196297835969176 8.3158737629890389087 8.2374668966043671503 8.2756791645490928033 8.2806225666793586981 8.3156314135914577435 8.2746793898951942481 8.306699417795739393 8.3214779078902303411 8.2009553174487557214 8.1717429949949735857 7.903294890648425941 8.3128541264061830418 8.2404786351023364688 999 999 999 999 999 999 999 999 999 999 999 999 999 999 999 999 999 999 999 999 999 999 999 999 999 999 999 999 999 999 999 999 999 999 999 999 999 999 999 999 999 999 999 999 999 999 999 999
999 999 999 999 999 999 999 999 999 999 999 999 999 999 999 999 999 999 999 999 999 999 999 999 999 999 999 999 999 999 999 999 999 999 999 999 999 999 999 999 999 999 999 999 999 999 999 999 10.708495815917839167 9.5217582815772683347 10.058979081378577547 7.4097095221395692377 7.2481741693022021522 13.562427651939909623 7.6968166603141288107 7.4703069012014848838 9.1253044888642360633 9.8646959176367126076 9.5976746313965222157 7.8742620975552295448 13.520138398467480556 15.752303548908781039 6.2071178045711645765 6.2031106987502493411 6.0355599358493581263 6.2598773147964577035 6.4740110498402536621 6.5841728897235975992 6.554937250001207083 6.7263161529778416892 7.2636858225224596453 10.066349402711644245 21.74247314503015005 9.9855500973984092639 14.174669073666624541 6.5273057949706956293 5.4857870550184770764 5.3887547655994039175 5.332552652880007571 5.8731015536200841254 9.1210987580589435453 8.5779641133301485212 8.2535061134788652026 7.8638801105722802021 7.6058999064438141957 10.597057346247931164 24.741521839430902219 22.329453178853849948 18.409614625754461059 8.5976510612161920477 7.2815326141132992177 7.5311091471704338929 8.7575376024317606038 11.55840795725876724 12.618907436913245235 12.170857919286866888 11.936052578307080552 10.925461844307523762 10.27909638909412493 10.188764344128642847 10.707591129196035951 10.162033782385805125 9.7700145963245379477 10.960362275434324175 10.926054009312874626 8.8421386786336206853 10.247293520663193434 10.938522430576368194 11.245634700336946565 11.291753752767307972 11.21692014025966877 10.841072851842373126 10.55302900004032729 10.769782799360486436 11.804117341748426639 12.023252803148151813 11.493795077468769605 11.173728761652776953 9.1538214628998098021 9.9643513812251924833 11.160606573535144292 11.861213651943566916 10.351618899733143309 10.860866324856468523 8.3399545468745142074 8.2518196178564746646 8.2526818460131341482 8.3300790895315550699 9.1488153106575538231 14.540094088317259136 8.8212727374542065917 8.1805783252446548914 8.2432673552602189204 8.1900763476274853758 8.127907343248253369 8.1699556101662551555 8.2060488950680134934 8.2310484056067618752 8.2295395384549010487 8.0895925204257466135 8.3123524348716166799 8.1980326164113979104 8.2205172865295441653 8.20305012765268593 999 999 999 999 999 999 999 999 999 999 999 999 999 999 999 999 999 999 999 999 999 999 999 999 999 999 999 999 999 999 999 999 999 999 999 999 999 999 999 999 999 999 999 999 999 999 999 999
999 999 999 999 999 999 999 999 999 999 999 999 999 999 999 999 999 999 999 999 999 999 999 999 999 999 999 999 999 999 999 999 999 999 999 999 999 999 999 999 999 999 999 999 999 999 999 999 15.13173953083067147 9.7282637568316783216 8.0532095902031919366 13.378299181416132058 8.9961658893589522279 15.720344378062092616 8.5782166689173102725 7.572700420993177417 8.1012159574370556925 8.516428179255120412 10.077411078884447093 8.4021496807123412509 10.275351539073025009 14.141018470519531647 6.0007523240947966414 5.6434926801414357911 6.0250248211639467755 6.4145748850928834273 6.4084060061964907007 6.5113008996275993923 6.6281516809131435508 7.3603507617539829511 14.395313175247563819 20.96034114600026399 23.597014317260853744 13.808339447296607005 7.763055955598249902 5.5783134544380343911 5.3520238840408032033 5.44571781738156524 6.1188381238864577583 7.6530410021522961017 9.4915428066435065801 11.054243374190054539 7.9495734918316616202 20.009605908833187016 20.082314935046621684 23.104669434833727593 20.506586046342633267 8.4461027468099025839 7.7540643033184410982 7.1144188929867668847 7.1496471717211154129 7.789010364801384867 9.2847050997702815778 10.89957168861301362 11.749652103223622746 12.477048008180913641 12.21502765350705566 11.07529304741819054 9.9759311943474102691 9.7607218551394083761 9.7312070182745671332 8.8080752023211275059 9.9104013479273689313 9.9905047167894061033 9.647914579584709216 10.588511496277106971 11.60736520711113684 12.681626310609056318 12.881729242481494424 12.807631230424004087 11.853157744040311528 9.7967308690304975016 8.6070626580155469298 8.8077258247359111465 10.020525690043903921 11.658165300599995007 12.23958392459946154 10.902334608460128251 10.604805909507421191 12.37085937538696534 12.866987550896091363 13.415461409500236911 13.231745331260393428 11.096555183818212598 8.8448422897514475949 8.3541572520576625749 7.8385170814682645357 8.2581307904480034665 11.613716558247284993 14.778066667538121592 11.609019994557145949 8.2379751218066594731 8.174184298001069493 8.1134915521859394261 8.0885991952576841157 8.1338881899559254407 8.0992586907338104396 8.1057463876794919599 8.0586438275317799906 8.1270101561869179108 8.249929244443132248 8.169010018707469456 8.1594248691094275472 8.1411889298176465246 999 999 999 999 999 999 999 999 999 999 999 999 999 999 999 999 999 999 999 999 999 999 999 999 999 999 999 999 999 999 999 999 999 999 999 999 999 999 999 999 999 999 999 999 999 999 999 999
999 999 999 999 999 999 999 999 999 999 999 999 999 999 999 999 999 999 999 999 999 999 999 999 999 999 999 999 999 999 999 999 999 999 999 999 999 999 999 999 999 999 999 999 999 999 999 999 13.816560934624932955 12.534397242768648084 10.460980067480543099 9.7908375763181538787 15.778897405459741066 8.723986349163199705 8.0493786084708087714 9.8625706687957546137 8.1351371016168805284 10.766807212343357136 10.544317009505080662 13.102287001728294413 14.845892027952782399 13.721147142810906416 6.2349274336751179248 5.6552700617485225365 6.1649755369487149181 6.3171558466153454603 6.3777914356411420371 6.5266129046856935503 7.6564085538048454183 16.077697166719634225 20.269111278702222734 24.559806955006720841 24.283820203531103488 12.466308452598148904 5.4483827034965290892 5.3537656078479018973 5.557846666432689986 7.8509343374062545706 11.706690206001317378 24.095260308860549259 27.394417669606021093 17.158492660179621936 7.6656552902381678294 7.9183137261679634733 8.8811314222265842488 10.643342947869466997 7.9366528551494841537 6.9927869093099497277 7.0693719920249247224 7.5557179431226950683 8.5315863344887983288 9.56755106331770655 11.605910971698053302 10.011964328400074109 11.218380960550579317 11.392595067299902567 12.236491413867769396 13.460651511811086323 10.161782454279441268 10.072270073607777263 9.3606218991174507948 8.818897211165097616 8.6870646884446358627 9.2486917579200103035 10.37896058741277372 11.299887903960110336 12.475226136468663185 12.830649962504384831 12.976533331385093462 12.467479226548396909 10.95875456682974658 8.5427032014641426372 8.180095749167231034 9.1325800159675250001 10.686707065358993063 12.369887686806480431 11.967680438988168135 11.694222750732816252 13.714715712043023643 14.730964365757582613 14.824033782913044632 14.620202235653550815 13.704722797215087127 12.877223866860560975 14.767705401111747676 8.5347628619965885122 8.3636748647696563808 8.3253047378945677082 8.1745736482199973238 8.5848448091588895892 9.0221457602212193905 8.2924201731652420477 7.9032997560609157262 7.9627855139603118673 7.8739641110088642861 7.9320232564633803563 8.0529978554783472333 8.0504021605302575892 8.0537829597834953432 7.681986832340286675 8.0752354217232245048 8.0948256970095950891 8.0653197391120308168 7.8794345971809383045 999 999 999 999 999 999 999 999 999 999 999 999 999 999 999 999 999 999 999 999 999 999 999 999 999 999 999 999 999 999 999 999 999 999 999 999 999 999 999 999 999 999 999 999 999 999 999 999
999 999 999 999 999 999 999 999 999 999 999 999 999 999 999 999 999 999 999 999 999 999 999 999 999 999 999 999 999 999 999 999 999 999 999 999 999 999 999 999 999 999 999 999 999 999 999 999 13.055406905245350302 11.336255268795746076 14.340276308265760719 11.953118404976301292 13.984449757347988452 9.4007666483231293597 10.403336508154723106 11.124023106823889506 8.6205926435248763084 8.3912655071267696627 10.404140130301078315 8.764402756750646617 14.098470737242566386 18.030219850124510117 7.609732271641215462 5.8400967037944981897 6.2182633225924348608 6.2373649019102064273 6.4214690858613625579 6.8563455837601274823 15.069580602911964107 24.743190241164601417 27.106161759352943363 20.172346535407125856 20.095796558268983034 6.2305428618677369812 5.3104136227554477045 5.3413557818597459104 7.4429390271424997749 14.974795517582037974 26.873290236373279072 22.68935498087277125 24.767820090365081143 24.372602690591971708 7.7212574809833185441 7.1557727747860244705 7.4162567732409643284 7.1961517903485372472 6.6205405960197438731 7.4719534798510531814 8.3559508785966745137 7.6502491984573657291 7.6601793920546574768 7.5426923709329445344 6.3110736617449783026 7.7895964442247773718 7.8051441036710951238 8.752859561278516054 10.511713747067075175 10.189171842141044877 9.9539336007575140997 8.8919875798260950006 8.5089056885731384483 8.5052400212608088026 9.5706294039973425214 10.504431176888685329 11.802279774012973235 12.08076866809249772 12.823350417496493847 12.67138075425324395 13.017189171139099457 11.541944640558533308 9.5707216137309423232 9.231195847061053783 10.140069210981279113 10.99427703059964756 11.268954837111344602 12.448508386639616674 14.054614351342088696 14.041033262556851469 14.827520288794381997 15.271440612437045203 15.474685099728388238 14.835231768883403447 13.850549584962246641 11.84359512746407006 8.9748442587288064232 8.2789521494408422342 8.0616746163403245617 8.1386873940531092586 8.8431006470196713565 8.5324423832917677402 8.244323354985196417 7.950217403420110962 7.8205742904595805243 7.6586942027256910137 7.5834836488431429657 8.0320504574858730962 8.2978978716072369082 7.9225468975987913822 7.9398517125729872745 7.9391609669790064174 7.8389437595672015746 7.9346331565930610097 7.9041271760164795168 7.8259570135397922286 999 999 999 999 999 999 999 999 999 999 999 999 999 999 999 999 999 999 999 999 999 999 999 999 999 999 999 999 999 999 999 999 999 999 999 999 999 999 999 999 999 999 999 999 999 999 999 999
999 999 999 999 999 999 999 999 999 999 999 999 999 999 999 999 999 999 999 999 999 999 999 999 999 999 999 999 999 999 999 999 999 999 999 999 999 999 999 999 999 999 999 999 999 999 999 999 12.312650669145000393 8.7034373231139579019 13.736693062132225407 13.649112258449273227 11.417832142775253601 8.2224117908963822998 9.2924216961539549686 9.878067069883396556 9.3244421544018791792 7.8406597375371394065 9.139601540484063591 8.1972993848142490236 14.376966020143166602 16.840745126873592596 6.6081821901007353759 5.6486562293368489662 6.1480851121537130055 6.3719258794692557046 6.9121164352187518531 8.7937482834691866884 26.654564565286065658 27.108693072015363157 12.903877084131384123 15.547533228802301153 8.055330209970717803 5.7200204786277648594 5.2222613755340487884 5.9624687898392778607 7.2707373499979697229 21.391001310620982423 27.31129787109837892 21.75660836236844986 11.357010427305729294 7.6153526279763292806 7.511111650068883705 7.0741805543092244335 7.0912254400721161929 8.1213785499624524533 7.5357670384444581657 7.9560473276017136257 9.2309094209863715719 8.2147095970005707954 8.4708568571683624526 6.9544536606705236181 9.5148637921139211926 11.185804874164608336 11.176882752811348354 9.4024941813422735493 9.2219782031364108121 9.0206008774151982266 8.5862115052200778109 8.9322032101384163383 9.6771839404722257427 10.115322114966033951 10.735776767525305075 11.454158749766628844 11.367201684931412586 11.416447292658780555 12.004634478426094546 11.827700272930718128 11.499875148662169977 9.9452815333778783469 9.4536363413289006274 10.399491299700123648 11.455746753709499686 11.463357901879408729 11.808724644262815318 13.262248993335134628 13.66826592182710165 13.826906469852273673 14.497409652978193506 15.290837384391517517 15.751751967635186702 18.492801362087085693 21.391786153244773061 17.854631834635885212 9.3311076288773371346 9.0455316401813696814 8.833400195836588864 8.3875328902705508227 7.945603710805006159 7.9875724350893051451 8.2298591998374632794 7.9312680417036443004 8.0202230092253739002 7.9739717843717423662 7.8941074960347847878 8.0038944120824186967 7.971992031940401624 7.7972575767915763834 7.7155447762125746181 7.715210660445901425 7.7079682263298643363 7.7365562144853301518 7.621577910696118785 7.6869941365939400413 999 999 999 999 999 999 999 999 999 999 999 999 999 999 999 999 999 999 999 999 999 999 999 999 999 999 999 999 999 999 999 999 999 999 999 999 999 999 999 999 999 999 999 999 999 999 999 999
999 999 999 999 999 999 999 999 999 999 999 999 999 999 999 999 999 999 999 999 999 999 999 999 999 999 999 999 999 999 999 999 999 999 999 999 999 999 999 999 999 999 999 999 999 999 999 999 7.6930870654527705454 8.1472411843283154553 9.6929535006629397031 14.852174940799038438 9.626923287138808405 8.9879850864130066412 8.0832520171671085052 8.1436410022556771082 7.7011750755643237909 7.3831258162810833312 7.9197334093001252597 11.132984486662726553 11.90906061824164297 8.2164444780877037289 5.8031736561097897464 5.6685817589075231382 6.0394339439190556362 6.5018474868727205163 9.6382579564817003615 24.381284888616473694 29.248570413161765202 17.81638026991073076 10.222935199955816898 7.8896857210120110437 5.639694257633395047 5.1140132584466062582 5.2352197569187008952 5.9341764146004276625 16.050767990061601154 25.25306126699873488 12.266922089780424088 8.0161907723384810964 8.1264938539918141203 7.2221703535358425796 6.975705196585265 7.8051980136218936934 8.7521824558465937116 8.4408877435130911238 7.9884649479605887024 8.3903107604764866068 8.1059739477018499798 8.5031589848092359318 8.9241686343502433232 11.108831679303470708 12.770836326712107223 14.810963776016572879 17.731150526785299348 15.07642884239594494 13.926464503966711206 11.048451651458810474 9.6699304637322960332 9.8188454815542804965 10.128979864294656466 10.888320730701902761 11.228724361503813256 11.317857723107705326 10.550883812153314167 10.596343340814954104 10.689647182388441138 10.834590465108991708 10.086023161226629341 9.1828685981133943983 9.6482392932015592635 10.389610224586190768 10.991933698005320608 11.330811835031408208 11.541563928525679472 12.103067223483403581 12.889227802612417406 13.894155896181587195 14.706336965969683206 15.585817942061012786 16.080879903634667016 20.171043978411670849 21.287036708810518348 22.689091587105355785 21.336487141162862713 18.783359626352769567 18.39822550242444521 9.3614196942680383273 9.1477861960788988682 8.6519140395281386446 8.5988848816943868059 8.7034369568933627193 8.1106277754011824044 8.2749814697558417009 8.1752607774912924299 9.1786674541650583592 9.0118747479893137609 8.4450881813116573937 7.8353867354696564718 7.632170156360451152 7.5586828480006262865 7.5902228944112870579 7.6128041652476046153 7.597692199463822682 999 999 999 999 999 999 999 999 999 999 999 999 999 999 999 999 999 999 999 999 999 999 999 999 999 999 999 999 999 999 999 999 999 999 999 999 999 999 999 999 999 999 999 999 999 999 999 999
999 999 999 999 999 999 999 999 999 999 999 999 999 999 999 999 999 999 999 999 999 999 999 999 999 999 999 999 999 999 999 999 999 999 999 999 999 999 999 999 999 999 999 999 999 999 999 999 6.8274549934735775381 7.5006583439769665134 12.724097878086597646 9.8764297134582275106 7.5166563621783657467 8.3125851663027638949 7.671911158253364782 8.0596867810858174863 7.4262461803137860272 7.16780071364062632 8.9862392734333944588 7.6221440407198297606 9.5555023136731662703 7.7886807469311447605 6.0762644888561796463 5.8005920709164593418 6.1452334316244625612 7.7865549706223662341 18.083378114260810321 27.969807799567718121 21.075303008819091133 17.720735735754477247 9.3149085071778454648 5.9163844327703865034 5.0423263061836935961 5.1450701065587161054 5.195595746734994691 6.0081419205953396911 17.411820173021162361 20.828683276339816643 8.2644681856781012641 7.6078650697616341247 7.2384049813321515998 6.8475684383107946474 6.8756254618081795726 7.0193976043824779509 8.3602165479736729736 8.5967912830260129198 8.3504186215957485473 8.4866162155715603177 8.2451942752217153298 8.1825273522942048032 9.9038082780950151829 13.328087496914184484 15.800687667066862119 18.488872422148826757 19.721551800960195777 16.704327224212597969 16.251481817652027928 15.830723757740347679 10.892044360325186858 8.864974699742420583 9.6497606516445522118 9.9807579094394807129 10.232215399762306873 10.329739983668368097 10.132140602657143447 9.7942548057978839893 9.6467693783805028573 9.5405990562338107708 8.8610470402050225402 8.1627314607700185434 10.0249131292114253 10.648624007810717274 11.094788112049569051 10.358041535720913018 10.800049017278876562 11.572184081977981762 13.967917594088076427 18.874220243617386927 15.323519273780050298 15.934198569821905522 22.021621856915839288 22.711576695074736421 23.073152633753085894 23.029007682971883497 20.148978792797173298 15.214161294863732365 15.845506521606349537 11.316289192172682476 10.754994363328640006 10.211996064682340446 14.221119997364151999 20.374506380143014184 11.70091149062131386 15.451217041262379936 12.051988019651137307 11.805397941954673513 11.83461452084854848 11.174850392607696747 9.6705732160553914412 8.6292208644074115398 7.8801172078441155122 7.6536151924943816027 7.5563266231726462507 7.6429091832595030809 999 999 999 999 999 999 999 999 999 999 999 999 999 999 999 999 999 999 999 999 999 999 999 999 999 999 999 999 999 999 999 999 999 999 999 999 999 999 999 999 999 999 999 999 999 999 999 999
999 999 999 999 999 999 999 999 999 999 999 999 999 999 999 999 999 999 999 999 999 999 999 999 999 999 999 999 999 999 999 999 999 999 999 999 999 999 999 999 999 999 999 999 999 999 999 999 9.6038698075227024731 9.5838917752104606507 10.865846191126017573 8.2023618531498918571 7.1402372560551095049 7.113207862275312543 7.2395209559216846529 11.162058260260916853 8.5839041554400719036 7.6139745095677122677 9.3225804542141137432 7.1417607134281730907 7.4118344002621991962 7.7143643167910891378 6.6234568175280079672 5.9454934754174502132 6.5688658525263159405 10.892800011455911147 23.761330735532407488 22.354880404323395737 13.805007929859772986 7.6601263050028673973 7.8827011628381935537 4.9946495277692974923 4.9461070402595472828 5.1020722466473005241 5.2093530238414986755 5.9980738207688091279 8.7778602995272088094 13.62560812731324944 7.4848016555801164529 7.1670244570874661605 6.811623528723409926 6.8781935447970221631 6.7047206271750328099 6.9625474422872519753 7.4325014764637611364 7.3767232771752651033 8.8393795365419727261 8.5688629308044870214 8.400960384467357045 9.7477779499536101326 12.013113381201478091 15.012525513881620043 17.691182493568664569 20.882899508261751009 21.918381657987211497 21.635786400048164779 20.001157525318955521 19.191560510655520488 16.288737622082454237 10.404486536567564059 11.193564623080039411 15.158625055971553408 15.250423205337144239 14.358659269469375985 15.227547377200087553 12.36722393025376121 11.031093364439565008 10.590553248123006469 9.159241302671862428 6.7397549615239107368 7.6614890202716967593 9.5811711166138628926 11.081910966790902151 14.109149148896472425 16.792057845537467387 19.956211174335422243 23.520980212623971539 24.025498095909242124 17.470877880193523168 21.542248263563514854 22.976468090047767134 16.569835207799169297 16.7442683268764263 15.182126453496922025 13.474667486545405026 12.883283904769246675 12.590734544313237464 12.272796193939852216 11.89599841439699901 11.724965310213807612 13.683039661192941239 13.217968982984471538 13.173290020726588168 12.438368065132399565 12.016942030409643039 12.03605541322209227 13.474811039649313926 11.592700059632969456 11.412485516526178486 11.369053176824305496 9.3818573929011197521 8.3415825157633598508 7.4234236987082464765 7.8522550412522411634 999 999 999 999 999 999 999 999 999 999 999 999 999 999 999 999 999 999 999 999 999 999 999 999 999 999 999 999 999 999 999 999 999 999 999 999 999 999 999 999 999 999 999 999 999 999 999 999
999 999 999 999 999 999 999 999 999 999 999 999 999 999 999 999 999 999 999 999 999 999 999 999 999 999 999 999 999 999 999 999 999 999 999 999 999 999 999 999 999 999 999 999 999 999 999 999 10.376390492621949235 12.710898761560024184 8.1337561159177820258 6.8606322102667487428 6.7628542122722912211 6.8013529857057628547 6.8230420887743665759 7.4458830687059212039 14.374948952137666325 7.906894425930167003 9.6634688464484561621 6.9278678870535674861 7.3730690818027877498 7.6560035840939466567 6.9237977080739945279 6.0832102309188442746 6.4167101343400405611 8.0078024917495991275 18.496243134086324034 11.374888189518596704 7.5048638600608885696 7.4490468078670648566 6.5540933164671351108 4.7061844073700109803 5.0420225696050282593 5.1270724411222410311 5.2414767279916008036 6.5920484199469662201 7.388372807510284801 7.1899129568495094844 7.0231137689291047721 6.7616097244576423009 6.6576032400550877455 6.706061400822827423 6.7126833222501147702 7.3197477760002254144 7.9258206198829039835 8.2550614826168011717 8.3316168481709826921 7.9805103568748982923 8.4285663162374788726 11.966655737726961561 15.090392026897216482 20.095910424801335381 21.24027967358893676 23.137010706698696083 25.14820622145812834 22.332830664667376652 23.14599865376912291 21.126997389031750174 17.128447818054731044 13.0018485322808246 15.271518652300512642 16.677028938666989433 17.463141236693477509 20.191210792011091257 19.677174440008364797 17.581234618461454744 16.690142402492455176 14.244401951452134725 8.1984023562473620217 6.2500866505946550689 7.9249292496871195368 9.3385276471554270472 10.598596768381280953 19.076751073006537496 22.863995178624840321 24.153372521972880094 24.570588138055747152 25.060676534145169825 24.09057325045273501 24.533753915515539745 21.705005361353837401 22.612610352115869006 21.956141470968141505 14.184101826650611144 13.246960315437204869 12.858035465016836696 12.600616154389744139 12.41640993863320297 12.305595669050251928 12.302323496553682958 12.456698135464465693 12.486182132448295334 12.299082896290997269 12.105617158709231163 12.252732326583595679 11.992901993559724971 11.97125719271385158 11.616592584394338061 11.32751536033581452 13.20559318814155958 10.901159469425827808 9.9325874026610705414 8.8454012119707297046 8.4336113521017814776 999 999 999 999 999 999 999 999 999 999 999 999 999 999 999 999 999 999 999 999 999 999 999 999 999 999 999 999 999 999 999 999 999 999 999 999 999 999 999 999 999 999 999 999 999 999 999 999
999 999 999 999 999 999 999 999 999 999 999 999 999 999 999 999 999 999 999 999 999 999 999 999 999 999 999 999 999 999 999 999 999 999 999 999 999 999 999 999 999 999 999 999 999 999 999 999 13.797287682606979686 8.4908214080868606999 7.2551943171103268071 6.67822913373933158 6.5788463180395755359 6.7126705127929584549 6.6732145848851409653 6.7863406720832877284 8.1938509646359634075 8.9416155315345786647 8.9680251994175179675 7.0323867197591702904 7.2959330217873779034 7.6680997610742531734 7.0668041487371651144 6.2771762414860567958 7.3812260528558910622 9.2451766403056812038 9.3530553451283697797 7.779434603754287636 12.08177459805625098 8.3333118638995049565 5.6856760508377934826 4.8759093246495908147 5.0615703317384062032 5.0764207402224625909 5.4195945463422940946 7.0245350592103568133 7.1969468978786990121 7.4705542258702921643 7.1407772291735946979 6.7855122944053798406 6.4935361388141696892 6.7538787277074749937 7.380992418724313886 8.3093807890394302262 8.1301440546847612012 8.4514620001110341008 7.9148023398822253682 8.0479966941751648335 10.723186985485986256 16.998993631710707319 20.65746916462678584 23.762214505559811073 25.745575486766060891 26.450004288416320009 26.237681234403929409 24.88397039172052061 23.587033192547671945 20.457481203468155684 17.149405014348712228 15.855110585864043315 18.366361141536856394 21.150176896169647023 21.271211167026361721 22.89146875255528002 22.213303822446523128 20.256088592255679259 17.485680272714059669 15.57077360996244586 12.470173973963714076 8.1339654530079545935 9.2054376049277220062 15.111228527339410022 20.031856672660651952 22.910097292311114359 25.08922908016356601 24.890992508162973706 27.710515569667172997 27.687021549274781762 26.779711927042409769 25.39212014136518647 21.483473063030405825 24.173586115927655271 18.886405532673578023 12.59174364168090321 13.004376029498647682 13.030238817756290004 12.904837150920009492 12.704601195621366472 12.696061463896796795 12.599319218820618005 12.513259911811438485 12.626372864190930301 12.211419206728567843 11.969715648712856648 11.973792353494927099 12.041523206050033679 12.068431623570997857 11.748369799968422456 11.165666291009802791 10.930806200543804252 10.808710018270536679 10.364430187102930958 9.6768756493714089828 9.3514644523052563585 999 999 999 999 999 999 999 999 999 999 999 999 999 999 999 999 999 999 999 999 999 999 999 999 999 999 999 999 999 999 999 999 999 999 999 999 999 999 999 999 999 999 999 999 999 999 999 999
999 999 999 999 999 999 999 999 999 999 999 999 999 999 999 999 999 999 999 999 999 999 999 999 999 999 999 999 999 999 999 999 999 999 999 999 999 999 999 999 999 999 999 999 999 999 999 999 13.700196180917211919 14.077070182571107537 11.95743525508414784 6.8104305020433004714 6.6196767834684235865 6.6133448755442225675 6.6235115591709217142 6.5627373744350165907 6.7366155001224345966 6.9678812550150848182 6.8675361549959399454 7.0367278378873283629 7.040979313680943541 7.733516618684792121 7.1545391485629199479 6.5553032376877338194 14.761110610320944403 18.236754824209263859 6.3579655374478427632 8.0828940912504751992 6.8434696066203262177 8.5708142858528226782 5.7879692523438350804 4.9848748641218270095 5.0043152730549937957 5.0779882088904937376 6.8992212933434817757 8.768578228528514984 6.9490632680991115677 8.1428770354332993264 8.3971389492212136219 6.744067697705718345 6.5954643445049461192 7.5183905357384714918 8.2891069646489228262 8.0028654147151296883 7.6041193709350878294 7.5937927318044406988 8.3537289056448447155 9.8891291906851996885 15.933800378550859733 20.405587842555739542 25.302587169994133376 28.221100571423257009 28.958958868964135291 28.93351328588891036 29.248387298715446292 27.718538262994229626 24.671932400039178646 21.872463839475127401 16.652472310059991401 18.812651380296568249 21.355467650356796838 23.915174017434441822 25.028681609876404224 25.29866037087149877 24.389473820651559777 22.11912647935543319 18.987526072083742434 16.771116862185031948 18.392458434996346028 19.912571866684295685 21.614334541337850482 23.159139024020070963 24.593617962201808069 27.019925334867444633 26.907427699491357487 28.170004587989932787 28.792686585412511135 28.508180483832365582 26.318676906501362822 24.83053232128525778 13.261594956545959434 20.100788025761747946 16.392666626819664799 12.501968281656623105 13.231657536324004099 13.406302296052370338 13.228406439155147467 12.998037158026127358 12.789811051761953209 12.652020080929574419 12.383164886039928376 12.770327949657227506 12.352418620791327797 12.294848789205962802 12.268316226185472573 12.17287751450003519 12.208725689225222055 12.08360809837158989 11.425201589275099323 11.007102317419114712 10.745085297600692087 10.536098059407457583 9.9643009561866584534 9.5832939436380257803 999 999 999 999 999 999 999 999 999 999 999 999 999 999 999 999 999 999 999 999 999 999 999 999 999 999 999 999 999 999 999 999 999 999 999 999 999 999 999 999 999 999 999 999 999 999 999 999
999 999 999 999 999 999 999 999 999 999 999 999 999 999 999 999 999 999 999 999 999 999 999 999 999 999 999 999 999 999 999 999 999 999 999 999 999 999 999 999 999 999 999 999 999 999 999 999 10.804008835218693818 7.7596435365868483558 13.520918418941526795 9.8155629188581272615 6.6751492113780539484 6.5622865525766762573 6.5062236174756566953 6.4150636558395213171 6.6672889125804841726 6.7326721971459848604 6.8061268872727191948 6.8488692987029926584 7.0325772769195218359 7.9115825549138545369 7.4535132801118439971 6.3312774308982024962 6.7559020038701325106 10.440632520569694819 11.363628036731070026 10.109099762668206424 8.5761003112730893605 7.1353709772066675754 5.2956972618866728908 4.8509550207795362198 5.0415525639574232386 5.1422866475313719903 6.2124062484555473418 9.1131785657959003544 6.7335576639195178217 7.7626787367215550617 8.0793075692234594953 6.4737959001543092796 6.4737472576274015523 7.4245584440534706516 8.3289674901649046745 8.1991975356050286194 9.51872524764227812 10.628778608847312626 12.747484280355370956 16.098820839434122121 20.45559706102157449 24.815182367812607112 28.935025585582739183 30.531088739903687213 30.788092576658929289 30.048071053517812601 27.651940668354182407 24.759583237177597681 23.179391645868214766 19.402704615936670507 20.765447661891570874 22.006658620537130844 24.310652554586781093 26.224746975018224049 27.895204376469184382 27.585213999502236959 26.792477630797879584 24.115528040712717939 20.897524504196940853 19.667464938306945754 23.659781644537385858 23.308680327840171742 25.229135134910823268 24.320397242008773731 26.585795535606390416 28.459999999997542375 27.973946317742985457 29.271172225271616441 29.385888437752029745 29.209265179028051307 27.948286556991881469 24.462005620504978509 24.724310762829464494 26.066834158252753184 14.257565872028685305 12.960047241065245416 14.028691763290161987 14.134955928664327374 13.941221286528149292 13.425956926101175526 13.06349525649059018 12.611660188008842809 12.57244104408570351 12.832623916550586429 12.495000253597487117 12.5989770672679402 12.492081207605270521 12.221755357183967661 12.189071415907683615 12.261008919722570454 11.821558462860547678 11.459376195274927568 10.738512384013009893 10.679660387113507625 10.324091273707171723 9.9171273230463476978 999 999 999 999 999 999 999 999 999 999 999 999 999 999 999 999 999 999 999 999 999 999 999 999 999 999 999 999 999 999 999 999 999 999 999 999 999 999 999 999 999 999 999 999 999 999 999 999
999 999 999 999 999 999 999 999 999 999 999 999 999 999 999 999 999 999 999 999 999 999 999 999 999 999 999 999 999 999 999 999 999 999 999 999 999 999 999 999 999 999 999 999 999 999 999 999 7.5171270390256728078 10.702662485447271834 13.550294314383759087 11.822798979106902806 7.2085675442206600394 6.7903425826127064013 6.4108075748056929655 6.7958106221095180288 6.7027320598574000599 6.6874152486001543494 6.7911557462282479136 7.0081361042941230366 7.1817255781829310024 8.332052386457629467 7.7020573642165341965 6.3374870250780324099 6.0764112539299883764 7.1249990518917103444 11.249432320234927118 9.8863777754463342262 9.0371605005081931949 7.1760251805013597348 4.9421376881196277253 4.8643711647838365764 4.8364386257699898408 6.0109747945188543028 7.9734617723770924158 7.7209416109804864803 7.0548532950168789668 9.2462389665588116117 7.0906558551169531768 6.4107964543410194125 6.4492317411888766543 7.2526618146572925383 7.7039769618557611963 7.1298313968416033859 9.153091629521277639 11.610790132180207834 17.293057501038767043 21.537332999875211215 24.997554301557819656 28.13271743507951328 29.818099127696093831 31.592669918471081303 31.199053189818684473 29.797745355858580751 27.269356572368597114 25.335213831084935521 20.079544381656372565 21.520233399451491607 24.130257237966212358 25.187499701407887187 27.330666397665947187 28.581962503242738904 28.87553096462754354 28.96861942647333521 27.943762806364890849 26.24287845960494181 23.951393093010786117 21.955677263166293756 24.033117111365452701 25.498283626298622551 26.289445857197801359 24.676534013843173909 22.794421450112068328 26.555012436575356816 27.033577250013291149 28.25088234569383161 30.279462264961718887 30.397541982900182944 28.964289855290534348 27.662196249561276318 21.464643527593182171 19.152711909577089244 13.791381720148484291 14.526050858405099575 15.074544487452314456 14.980196597274348491 13.996295810872553034 13.052037780336279482 12.502248907890729512 12.741481163259031462 12.833319552492222115 12.384377425798835048 12.581768829906406992 12.496394333737869786 12.581424139013428487 12.512476620987678544 12.107422362296775376 12.631387100940010271 12.141839158440571822 11.458921720095492702 11.058675646824868366 10.755679161724506443 10.570279398938104976 10.260287793657330013 999 999 999 999 999 999 999 999 999 999 999 999 999 999 999 999 999 999 999 999 999 999 999 999 999 999 999 999 999 999 999 999 999 999 999 999 999 999 999 999 999 999 999 999 999 999 999 999
999 999 999 999 999 999 999 999 999 999 999 999 999 999 999 999 999 999 999 999 999 999 999 999 999 999 999 999 999 999 999 999 999 999 999 999 999 999 999 999 999 999 999 999 999 999 999 999 7.9773669361434151881 13.140268382725277974 11.719263478513012089 13.937180118226699221 9.647726098191759192 9.3520436468035192945 10.362570163608159746 9.8572876128558331033 7.5776223792558123904 7.1975332206391122725 7.394843962012354055 9.1093444290573142297 8.0612412770592154487 7.620336742843608846 7.8472325584484918792 6.6091951455600224108 6.0523833997188747347 7.989318706615534893 10.344503156296498858 6.7011892526354053246 12.833911727453708451 6.3758082013971844049 4.7727148807779498085 4.6657117826993470544 4.9417328341578503625 11.382540473102848111 19.910825373204062316 17.234536233583543918 7.4124431920085873671 6.9328821886745490843 6.5039910076209954681 6.1731906346626619353 6.2842347522186576825 7.6980854170831927163 7.6517239293832917113 7.9971448898248347348 7.2954536654999033729 9.4591065434702077397 14.492117771698502793 20.72946419439365684 24.673355598574627123 26.132360086188519688 28.546263310782293843 31.358689368705370271 30.55302855854046129 27.793983126622034519 25.762726312043202626 21.114795070064932503 20.89108822732104187 23.929426961099885318 26.781145680762705297 28.484808609065758844 29.320560407548718729 29.519092348487401267 30.024103279929388322 30.808614194650981943 29.973066293215605782 26.480449687049109286 25.145161780287185849 23.868087771649065587 23.894303916986775249 27.028973701184227707 25.269878670354785299 24.679067632169026325 27.606287335408342898 29.53686579960385572 29.897352305145101781 31.274178455958583811 32.389880971244579655 32.618236638611037392 30.3361528604105537 28.135120933542481225 29.286529221714907578 12.714274508981942446 16.020958033272076904 16.57894508508582021 16.152481455264776855 14.745765505023866737 13.450819916555680322 12.815649105932070739 12.743104254010271248 12.435165605490718477 12.374718581092672309 12.461227158938351423 12.496228643445359552 12.496375007694416226 12.307390529561503811 12.240697524314468225 12.432375024766535887 12.348897021521791473 12.406838182382530889 11.626570029920403115 11.180204984476088015 10.798685915003165547 10.587974730143525193 10.379349008960646827 999 999 999 999 999 999 999 999 999 999 999 999 999 999 999 999 999 999 999 999 999 999 999 999 999 999 999 999 999 999 999 999 999 999 999 999 999 999 999 999 999 999 999 999 999 999 999 999
999 999 999 999 999 999 999 999 999 999 999 999 999 999 999 999 999 999 999 999 999 999 999 999 999 999 999 999 999 999 999 999 999 999 999 999 999 999 999 999 999 999 999 999 999 999 999 999 11.741037641077905818 14.192035494294758635 12.850486682725952292 10.749240469729100411 13.061708994972134334 10.145549476486538154 13.342548092506756774 11.176594291030957251 13.149533023937813425 12.790473398264442295 10.078662200825679207 14.813134379272964836 14.287395316479933882 11.887737641079958451 9.1865617581404208636 7.5654205371267275737 6.1883892368824024999 6.7170896495660237235 10.186015827280867185 8.3792162265059939585 10.101284698002118034 6.2673705527417453709 4.6944821323805578928 4.6993361552773391665 4.8637479459246426572 8.6783407456086418819 19.404967896858263288 16.939481556567649534 8.7584436291162113264 7.7431817643737241852 6.3050496831880744608 5.9520112545176457886 6.0844737793140897253 6.4177355604231349773 7.3876228251647484413 7.7575116164917421457 7.0517059032564226584 7.4758797838528350255 10.658490013837930377 16.055476558471820425 19.261100896247945968 19.793036973748371565 22.572966030723204511 26.45679659072956369 28.410565625287823366 27.043297342305724129 23.967013272039398686 19.112397228179425213 21.052354193662655035 25.323663517409475077 28.568902163605969236 29.984110552597130095 29.942009336224678862 29.941496319815978921 31.061296908923257121 32.423617603482945526 31.147140160338157244 28.954385287138030947 26.114341059257508704 24.058654173102194562 27.251626376340905011 28.148534279581639339 26.673870104530205793 27.418474043206945368 30.088865706902090835 32.480735123890873695 33.739004173109762519 32.942275801477890695 36.073667390082910345 35.786178251716883381 33.89783172508540332 31.009714413387239773 29.425596906282613929 25.013876314336776829 18.743404082358686935 18.05506173009161941 17.13271608985796135 14.781319054604045604 13.355533708211005717 12.906863507093907728 12.531326594108135097 12.430028832426106788 12.64798729915976061 12.490297370353896866 12.700441188810398074 12.419340632997860396 12.329931218770150636 12.427909387956216136 12.457404557599275563 12.142105535042714948 11.854452894673398688 11.649177363576242783 11.214919667162421391 10.845763513147756996 10.587503860346082263 10.396018771030195893 999 999 999 999 999 999 999 999 999 999 999 999 999 999 999 999 999 999 999 999 999 999 999 999 999 999 999 999 999 999 999 999 999 999 999 999 999 999 999 999 999 999 999 999 999 999 999 999
999 999 999 999 999 999 999 999 999 999 999 999 999 999 999 999 999 999 999 999 999 999 999 999 999 999 999 999 999 999 999 999 999 999 999 999 999 999 999 999 999 999 999 999 999 999 999 999 6.8481010384867140317 8.6188908262159991125 7.7397758938764154024 8.0561346894788581352 10.483514625208350424 7.4210604821241510365 7.643500899683510319 9.8253903634900723318 10.686907675888456026 11.462486049040874647 11.910722578511833802 14.118058914401771631 16.720716365975032858 9.6996901511375970273 10.061702224865783251 10.906615122221452907 8.0664673752932891659 6.3187846172628860941 11.241668735156173042 11.109442172258756187 6.7711882065594428681 5.6297754436232221309 4.6121649309487668944 4.5983407496642199064 4.7234671614086458646 6.3039165036604609682 14.985080135397945256 8.4697019834061659793 6.9100159325279664202 6.9418402150683116147 6.3835095425705876693 5.802332691404239462 5.867037139174867022 6.1154992644592294226 7.523826320473622431 7.5668894340676278176 7.1223082730499394088 7.2225483981565279379 7.6401900698818412394 11.35566814637574673 11.918904914721103694 13.493652122521400116 17.001433696341045732 21.908400067950555723 26.009341611977113473 25.555445549453899901 20.091767699339854403 18.468037159082204113 20.240647813566550184 25.18231991330274866 28.886922981034185653 30.017789622755511658 29.924055081793557775 29.84690772881727483 31.789537551269706483 33.356956800728902124 32.929837638951291012 29.995310006950802517 26.61818470037812645 25.136726631276815169 26.795847247741704678 28.610826378333690911 27.651466815356247508 31.15097566462253198 33.970838460496409539 36.05154774321708544 37.192743613914856837 35.62483747500553477 36.682491794142912056 36.446731065564229368 34.38514119314944395 31.061879624678223166 27.862258781942042418 24.730681181290272264 21.016343524293422007 18.613214635392772323 16.730749179860243459 15.302659078292574435 13.929137613948414653 12.967573806732939801 12.900206993304179193 12.378304787892325578 12.518476173515859173 12.427820882739569086 12.338732832436965836 12.417816279509500177 12.456857837761537766 12.540922108361861831 12.42290545487566078 12.053103485790234828 11.788918856201570762 11.407398181837734796 11.068606176883422521 10.766805669804803358 10.545803573009342458 10.428075219856106415 999 999 999 999 999 999 999 999 999 999 999 999 999 999 999 999 999 999 999 999 999 999 999 999 999 999 999 999 999 999 999 999 999 999 999 999 999 999 999 999 999 999 999 999 999 999 999 999
999 999 999 999 999 999 999 999 999 999 999 999 999 999 999 999 999 999 999 999 999 999 999 999 999 999 999 999 999 999 999 999 999 999 999 999 999 999 999 999 999 999 999 999 999 999 999 999 6.7196774274665402871 6.6241524226712940049 6.9076433680552700167 9.7395943118634562552 6.6360025551295391821 6.3468285924195919634 7.2761383614673107445 12.029291529338635769 7.2083159375628769183 7.0222541879963831235 7.9541960068377628446 14.623595931603837528 11.996525499235644929 15.967294970464346093 9.320476006283481496 9.0734511889021565167 13.903106870099209758 6.7041595602545624999 7.2700268326317232237 10.056084624612775968 5.9757335267475131246 4.8769870267678490094 4.5158984335561127565 4.553680533963264665 4.4631091970916294542 5.5393029844205479151 6.5084915422783762295 6.9074403879716568255 6.9114518557722623981 7.6208680419362506697 6.9367766903546730362 5.8490930342343654402 5.6591709960749252417 6.3825125101204545075 7.0993398194575521032 6.9958925447851170176 6.7410663769299619119 6.7339351935028686214 6.8812194182317449886 7.1818404320055151402 7.2075538131265881603 8.156453204563911541 12.395518300489182906 17.86634594466526238 23.457807340869763379 24.595634369006177167 26.059071093738836566 19.545245245784371946 20.619357149724649503 25.175220722740352386 29.376067196326197006 30.475617826781455477 30.144991179937509429 29.965872498704051452 32.32056269608829524 34.606634930148203466 34.692046329349707889 30.773311470136061274 28.552190301481239487 25.733752315297465429 25.576387620858380245 28.515004314792761875 30.183294018177448947 35.481386623044045336 36.258571863645059352 38.875089465710189529 39.350175466955846559 37.510987361462774459 38.161902431860582396 37.039689913523019982 32.60624870591033897 28.641567988137559553 26.0922450975715563 24.34114797413113962 21.601526897683140049 18.596690710912433531 17.33618576282787771 15.525788533875351405 14.150425074136460779 13.466760383468175277 13.195963955786622179 12.595131044214255667 12.437242165650632231 12.369237409453530674 12.35084470783710664 12.359010195305147661 12.607129452462356056 12.936554207237547232 12.431425396517784776 12.012247824421507403 11.675706505299663363 11.285993129469252594 10.97721196448575931 10.812181650920418718 10.646768244508100665 10.528099970541999753 999 999 999 999 999 999 999 999 999 999 999 999 999 999 999 999 999 999 999 999 999 999 999 999 999 999 999 999 999 999 999 999 999 999 999 999 999 999 999 999 999 999 999 999 999 999 999 999
999 999 999 999 999 999 999 999 999 999 999 999 999 999 999 999 999 999 999 999 999 999 999 999 999 999 999 999 999 999 999 999 999 999 999 999 999 999 999 999 999 999 999 999 999 999 999 999 6.7258915756987844858 6.7690895864492581779 7.0143454790292532053 9.6075213004897452862 6.5064248475062189669 6.2177096222195409325 7.0119204648719630768 8.5668386184441640552 7.2715229146106610258 8.2842995057454480445 7.1209052189250039433 18.249983375158496557 14.651951112749527439 15.054246522980443856 8.9436226497620054943 8.7473228866758798716 9.5814922927993144697 13.525860941006602189 9.2888700174232567974 7.8372552167867421957 5.9306474615531827865 4.7429379782903602347 4.5124539350490797673 4.5113568203383183075 4.5174766467414535498 5.0737733506404136818 5.6873563351112732533 6.5491017533946811469 6.3794990146755745641 7.0555611984560773209 7.6012092002985802708 5.8768780786450136588 5.6388070822010867289 5.7548439610455606186 7.5715345675671104075 6.9971342693422675652 8.0353517938615457439 7.0586062280658055101 7.0323146574902182238 6.394332093883027035 6.2817885900766112783 6.9123467407901522108 8.6414477863438730054 14.225709253861566594 19.662842207162288588 24.950095689256443166 24.788759168351184314 20.513684492609073118 24.883634744543282835 26.161503168290686006 30.162398973322229523 31.257265298935873687 30.615428679434955939 32.80102788662220803 33.926307692582092557 36.395529683706904223 35.624678565290302856 33.2395452300385017 31.070040930641329879 28.328219726393811584 28.80391900044505249 30.127360316559190778 32.517415859420260915 35.45834825763868281 38.137221435153101368 40.602088082739285824 40.51860667872347932 37.602737135844122918 35.223210524757007533 31.521582098095844771 29.849344018159516878 29.055153889892949337 26.518806054871738809 23.522120801834152104 20.925762544799002995 18.304283291694325442 17.259547430341157792 15.757853050742465228 14.60850481418021829 13.720348232801304889 13.269509313288619268 12.822714461662473084 12.511317160610854415 12.614930172275558462 12.55566889745183623 12.630602365459122183 12.91464334827580096 12.87557015971341734 12.278709155094269079 11.857378812699208126 11.494447754823497121 11.242322359407854293 10.993327642784105791 10.909295914989854737 10.882387596745290992 10.820924002622660964 999 999 999 999 999 999 999 999 999 999 999 999 999 999 999 999 999 999 999 999 999 999 999 999 999 999 999 999 999 999 999 999 999 999 999 999 999 999 999 999 999 999 999 999 999 999 999 999
999 999 999 999 999 999 999 999 999 999 999 999 999 999 999 999 999 999 999 999 999 999 999 999 999 999 999 999 999 999 999 999 999 999 999 999 999 999 999 999 999 999 999 999 999 999 999 999 6.8305766300689532144 6.7075423787698227329 7.0496666237865905913 7.5475900980866406087 6.5317320744204447891 6.1716848578966159167 7.1378934356574141873 8.9992102928694652775 7.6589845803073659525 8.9483159002513126268 8.4291457287181614788 16.805537722225654562 13.82911051080545306 13.189718472589978759 11.17963193156986712 10.330934871444883427 13.286274177361148574 15.351689634365433434 18.771714113232437882 17.018162477205603267 8.5997961402712039813 5.1863833134708405836 4.413249785506038414 4.3845937352005872611 4.3485095340600317115 4.6840077035699190233 5.6197362559330050757 6.3739314922682233089 6.4191907208807661434 6.7283625943162297389 6.2898475378015534787 5.7855273332833574429 5.7294189520616818356 5.6479395783888275417 7.2877742781544840867 6.9997532348993765083 7.4566466847251859917 7.5121542884136731644 6.9378324932863657537 6.4459101644451033408 6.5454944457646613287 6.6802416351306854736 7.311198317859291862 10.99052660161753181 17.145646762322183321 21.609573528563728928 24.68005013977640516 23.038148456729260261 25.443121808827935837 27.944564312827015584 31.193006493031646187 31.400342559536536413 31.306227085175443392 33.393177847598721542 35.803427446439613391 37.805877856322318564 37.207867485393009588 35.621081972411090533 33.253049510258350097 30.921164264047757086 31.386963062276620917 34.120761982680278379 34.146169540926095465 36.507513198197123927 39.276994676766413761 40.97381498405179201 40.274078441415468887 37.242843618914292847 33.205930737422939103 29.703377016272341393 27.713059882670350476 26.965685089830444099 24.814134885597209035 22.717511411060257842 19.830128042879934469 18.23497636965658586 17.424284097377015001 16.619745808904195172 15.280000000000189431 14.301127042509040876 13.857838807519346602 13.544736253462840381 13.225246223634421483 13.012965898468136672 13.0471307611655849 13.596367377916878993 12.779610346899854534 12.720094402148774293 12.238781615324532126 11.677481311854203128 11.532678874762908094 11.45180264531657599 11.027373133409096084 11.068988484209516088 11.148663872061378655 11.009158318746548488 999 999 999 999 999 999 999 999 999 999 999 999 999 999 999 999 999 999 999 999 999 999 999 999 999 999 999 999 999 999 999 999 999 999 999 999 999 999 999 999 999 999 999 999 999 999 999 999
999 999 999 999 999 999 999 999 999 999 999 999 999 999 999 999 999 999 999 999 999 999 999 999 999 999 999 999 999 999 999 999 999 999 999 999 999 999 999 999 999 999 999 999 999 999 999 999 6.5386063841817527731 6.2782242979006612771 6.9072507574871604419 7.1313568385398031779 6.7539330354427464798 6.1583633477181525251 7.1368670701195924266 8.3663438625908650437 7.7224710582837179373 9.6081022658312988938 8.0404286545440211142 15.528103079079230042 7.8768430582225947845 9.6570053730262479519 13.515782103725804575 13.525350726817855218 11.079043003249577026 17.238125077962166642 19.530716955538679258 16.966627135720376174 10.900242435986436718 7.5636497327107585775 4.5527230870521622208 4.4533895834318597551 4.3337758088157736225 4.6359187246231190471 5.1556858692889537821 6.259888684506480061 6.5789019655190683622 6.6897381415879282329 6.365425737817122176 6.4675329934455723091 5.5920880710656444279 5.5879146678442390694 6.0521208976800435764 7.5918171594100751776 6.9545351235592658412 8.0690808633317185894 6.9872157725293622121 6.5462950612853534338 6.2059045371367691502 6.1922754710058605099 6.7845195339015980096 8.0360593730379843436 11.908838600233469407 17.267546745922061291 23.249492937361047495 25.129672511318215555 28.576482462093988346 30.55400116790275078 31.943959273662258624 31.032543606630834887 31.410556420785052723 34.194940787524998882 36.13273245255636823 37.571038775290844569 37.756406278092796924 36.526919726610515227 36.934154705359773629 35.785918897344053846 34.668085936269960712 35.857430035430844839 36.121324811111719555 37.320219852892790868 38.835621447176890797 40.446336063535881067 38.405930511339356315 35.763209491448435529 31.516120401465741452 29.164160285869073164 26.108918566480067369 24.889082157183821664 23.12299358616828826 21.357839036862326765 19.576438533716959967 18.457658352429159976 18.003384550996184288 17.369044187689418379 16.450833384564543138 15.448002423111713455 15.005612774842788326 14.44036389232481099 14.009999999999793729 13.887045031877118362 13.680171913438822884 13.333697076568233442 12.743126400035762913 12.598276037443396191 11.817041407940454434 11.60191267146943872 11.623216825207432379 11.566706092675440587 11.260408432338277152 11.282731325625285024 11.375889591506970433 11.692102133705809308 999 999 999 999 999 999 999 999 999 999 999 999 999 999 999 999 999 999 999 999 999 999 999 999 999 999 999 999 999 999 999 999 999 999 999 999 999 999 999 999 999 999 999 999 999 999 999 999
999 999 999 999 999 999 999 999 999 999 999 999 999 999 999 999 999 999 999 999 999 999 999 999 999 999 999 999 999 999 999 999 999 999 999 999 999 999 999 999 999 999 999 999 999 999 999 999 6.5153413932458379421 6.3191849418940053695 6.7033966658843899822 8.8289389377335290021 7.1526593402145488554 7.3227267819284280748 8.5027879305402116472 7.1649018816797944709 8.7192218581499680852 8.1419287364944334939 8.1924222189072946065 16.40749589485930926 6.8615600788579937941 8.8696750995888269387 16.475785254464472729 13.26527842379760358 9.4195910988088495941 13.603459451505532485 14.919506422428883141 11.383665018061456919 9.671633890846599968 9.3234945112780813758 4.895757350733752844 4.4137019890171140801 4.1908706314347643485 4.1927490432189378211 4.7141119201340488942 6.1389125322998436829 8.5079054152503061914 6.5722098154443333584 7.3348379099791207736 7.3241759864616104991 6.0300975270902323899 5.8571524061478603684 5.8515684274956916155 7.0252289653454260687 7.1669715844787242887 6.9682643610478711693 6.5656708733579760562 6.3777341395654598699 6.568276297664480623 6.3447997733832526279 9.7263661156060603474 12.812666507349613099 12.807291433951043302 14.622476583065013855 21.835269246388936182 26.516863860713915102 29.501704207407829728 31.554016982067555119 30.699134166704663329 29.556318913793354852 30.91398700803658528 33.271341820405915257 34.824072177532734429 35.278387775950250216 36.407234497153396546 36.879331523360917799 37.040814670396251529 37.034258563966204747 36.705941005906240093 36.164226047136473596 36.973379225808272963 37.135940481408091784 38.530293951564864585 39.658711046583370319 37.204590919987133191 34.444945959843806804 31.91641343092603833 28.773175032787804639 23.837564187649515901 22.598487868179372384 21.396298563501083834 19.403520178000977836 18.931596631963710564 18.870860112913010909 18.545147431502346791 18.166502646252187247 17.419147722657029931 16.633641734947516966 16.046560846632651476 15.421451546328183824 14.927980407443111943 14.63127243501807051 14.454294785334575124 13.617760005082486074 12.946740082323309196 12.151347971066531528 11.653588382786596256 11.643402851315629576 11.682463863580020202 11.65689902904091646 11.526546364697386693 11.593376909673953179 12.143550936547276464 12.557919817336848922 999 999 999 999 999 999 999 999 999 999 999 999 999 999 999 999 999 999 999 999 999 999 999 999 999 999 999 999 999 999 999 999 999 999 999 999 999 999 999 999 999 999 999 999 999 999 999 999
999 999 999 999 999 999 999 999 999 999 999 999 999 999 999 999 999 999 999 999 999 999 999 999 999 999 999 999 999 999 999 999 999 999 999 999 999 999 999 999 999 999 999 999 999 999 999 999 6.5171226579699110815 6.3738686221589846426 6.7656329763437792479 8.6135317775487774128 7.6848020094448257211 7.1503499130740850731 10.531251283958088294 10.0449386248027146 10.917338270788947696 10.174463338466379625 7.3580214281274631816 11.632668963401927797 8.6083328347393006652 12.00694900167620105 23.869844999734439739 18.083139547746299058 8.3430290182263124876 10.629318071766585163 19.211308760305456644 17.650644945418608955 19.232735162865356671 10.630928934280548859 4.9624795724516710393 4.4401248661186123456 4.237306860677124476 4.1356210625378313495 4.6508473403529544399 5.7803096083990084253 6.7534449527944238056 8.1580302451222355131 9.6461013054862903005 8.4816692385276244437 6.1940573769836753115 5.8351063255696855592 5.6848418324364535792 5.8179373907470823823 7.0056074478111778348 7.4515459214755059847 7.086842160116980871 7.112328292741662672 6.3154812491163578869 6.6008023549649150752 7.1184266007792826869 10.546179648143320762 12.515458275751653261 13.103244555308405594 19.415720256953477474 26.319768535873773629 29.6629260556860892 29.300976870863483015 27.538531284186738901 28.195131121527655438 29.310600436801689028 30.615695459494595809 30.782787399809375728 31.820903541769403944 33.469365111887483977 34.822226044416829893 35.646591668269351771 35.858492300214557247 35.251849429402078329 35.289173789663188074 34.303556957783051473 36.377996191775736179 36.788045705826618814 37.556214178159045503 34.643521997852502636 31.068613073898539767 31.219682254492060025 28.008710921598819255 22.140791133210829145 20.688550891971871692 19.890356536821617084 19.308542432383866583 19.382390393318171817 19.603479989158660857 19.852825789983096882 19.59456367178516345 18.777250894228583178 17.228678558284645561 16.907102696612817283 16.675086437488459978 16.014651831138500881 15.187701475465376078 14.772642722030623119 13.944499683014830893 13.081413639238858693 12.19278266142564604 11.875550197079901338 11.722579115364572644 11.755764793419960057 11.860425804142581185 11.722550554927259725 11.858047529303595624 12.541245783942828851 12.973817219862125327 999 999 999 999 999 999 999 999 999 999 999 999 999 999 999 999 999 999 999 999 999 999 999 999 999 999 999 999 999 999 999 999 999 999 999 999 999 999 999 999 999 999 999 999 999 999 999 999
999 999 999 999 999 999 999 999 999 999 999 999 999 999 999 999 999 999 999 999 999 999 999 999 999 999 999 999 999 999 999 999 999 999 999 999 999 999 999 999 999 999 999 999 999 999 999 999 6.2569404720886900861 6.6689768266796232155 11.284690248265063062 8.3538838353166156026 6.2502165660970430139 6.7127749245216099538 6.4885791301570581169 7.2641026184414085876 7.7967991202417881169 8.6217072171129025548 10.686071219472399463 16.226889955297334467 13.29761811459943921 14.579972488841653089 21.516998699863499667 17.06215046639762889 7.6525286525078586308 11.756130623669630353 16.602351118960978482 20.633716506349962572 9.1662230954154182427 7.519245082803672986 6.2384898497853775723 4.390904647920141457 4.2955393871311908782 4.0962890430456218027 4.5122656694384053466 5.5200000000000191136 6.7414459652467835227 7.8891987160313403749 6.6499354839393873817 8.2400145805868625359 7.6952012435192864714 5.8381218217445853824 5.7533618781821962429 5.6374699762714897133 5.7099535126805767149 6.9809234362571936927 7.5192821342433608933 8.641997450414891091 6.5835951423164367213 6.1798292745275782423 6.6832978936116758106 10.176506944534912336 13.9443770796128792 13.311656466489740325 17.730727085694454104 24.236942941453854417 27.556104616327608881 26.138631828174865745 25.990067046648889004 26.353217133400626437 26.554884665425618095 26.659359516817175972 27.161131404227834452 28.217611323897514808 29.718318460122223001 31.470377763986963515 32.305778573943136678 32.660404007649425751 31.952172644716572592 31.178490673078194106 31.928070416074309179 34.24438103939608169 32.634365538762168057 27.814993691594171565 26.20358595182088024 25.615761247131640488 24.045735076602049674 22.590351073806804294 21.615615889590770848 19.881896603774752208 19.445163509479090891 19.303200138556281473 19.938657863992396813 20.459175256624437367 20.16806271657540961 18.47586175231551664 18.075631582033718558 17.749957376827101285 18.454164705566210358 18.674067114852672233 17.49359114026657025 15.646294569033319277 14.881004717886394673 13.864427322878713156 13.053506851499170338 12.414785697821317356 12.122015280870257925 11.959334043535598369 11.965482225482103829 11.955030059055081537 11.939915061975971966 12.119339803029431479 12.777948557130525131 13.143698849051222766 999 999 999 999 999 999 999 999 999 999 999 999 999 999 999 999 999 999 999 999 999 999 999 999 999 999 999 999 999 999 999 999 999 999 999 999 999 999 999 999 999 999 999 999 999 999 999 999
999 999 999 999 999 999 999 999 999 999 999 999 999 999 999 999 999 999 999 999 999 999 999 999 999 999 999 999 999 999 999 999 999 999 999 999 999 999 999 999 999 999 999 999 999 999 999 999 6.197268856394367198 7.8592675236664613081 8.8549689399463904493 6.5098337111508843833 6.5525345590117867189 10.944944538567714432 7.4907465964679333936 9.649349705004578226 7.1617746501532515424 8.578539621106823887 8.2956088418842011123 15.271292461188764378 13.947111545695152657 21.940269048839809329 22.203022941370491594 20.708885879570107846 10.851737272681560853 9.7572290193636703748 8.9855933180348444012 21.5453994944155518 23.456866256801678361 15.508121387383146939 8.9810492489099029711 5.3089796399887569933 4.3383089498107825221 4.0366626832161793814 4.4512303130060040246 5.7863321657286315158 5.2948992968555206318 7.0716858792123975519 6.8465482547420526416 7.1313697509114337691 7.5728734484919915104 5.6876765746887949504 5.6943425145813364452 5.6547082958939229869 5.4742692470291727247 5.5390930779409695006 6.6644292120188870499 7.645572141217665596 6.7165610932471357941 6.4945059136218361573 6.7156702502295120283 7.0060721212908276812 6.9919394913117196566 13.097944900449308037 16.395001337884178128 22.560701595738475334 24.223402380650075116 23.681279554053833891 23.038144218253275852 22.870399008818608877 24.630751637583614411 25.154224775517114665 25.448362945442752903 26.044261003829674905 27.332489694040546624 28.13223288800282873 28.71868524473947204 30.883185516500827106 27.805977562685711746 28.453734359350519867 32.183821244199670275 29.118879019102777761 24.642400913524340922 21.711286097192807887 19.640054355556596732 19.468428853534490486 19.306089511676109538 18.760873209378420512 18.889108596901941439 20.209397115062088801 19.770207194150618335 19.201189881326889974 21.09665127903195625 18.901800607161163725 18.536803915289343792 18.351804912156779892 18.623114528252909139 18.770236060708953119 21.567246642971149129 19.782065956575664245 18.34743159794544809 16.066148930072756684 14.430312851532750784 13.76908508211634441 13.134975820392948975 12.661282678862095352 12.417265794826240821 12.259289138458568047 12.198373001128768323 12.24554638145754204 12.172748384987361447 12.308145861284916833 12.780387160541774705 13.10413938707994852 999 999 999 999 999 999 999 999 999 999 999 999 999 999 999 999 999 999 999 999 999 999 999 999 999 999 999 999 999 999 999 999 999 999 999 999 999 999 999 999 999 999 999 999 999 999 999 999
999 999 999 999 999 999 999 999 999 999 999 999 999 999 999 999 999 999 999 999 999 999 999 999 999 999 999 999 999 999 999 999 999 999 999 999 999 999 999 999 999 999 999 999 999 999 999 999 6.5472481092956158477 6.7901635112512321868 12.618952675699706134 6.5534086965674482883 6.3174857864597990798 12.358380123863996758 10.441918372207723564 8.8882056959379998062 7.2074954458355291464 10.876731219274827112 8.5923236583016411316 10.23480904359168342 11.819844148743335666 22.889724466106471823 13.543800073888247582 19.737286455694071918 21.552609242750399687 10.126318962293808568 9.4685171881926546433 8.6859957447687907717 18.064907809855881737 19.549664041993235486 11.119753693989304466 13.093038800981721792 3.9181637235831887622 4.0478371441967606614 4.565822488676502644 5.7052969298898510431 5.4504333134441083075 15.219994013355677254 13.89951887652170015 11.137105365081124475 7.2698719014293153862 5.8198488557247980424 5.6526356495682108516 5.699324011791866873 5.5354890504364249182 5.4227255247865864263 5.5864552370797229131 7.2538407842431711359 7.4021081348732256089 7.152314956555884784 6.0199344689686586918 6.6253798885048569289 7.6943334309793121051 9.0031665363781581135 13.273256532305984123 18.124265163283528324 19.597920263491673154 19.775817354660073732 19.120713208646858305 20.413578127649333993 21.502806423107180933 22.931067483555018782 24.200033334099742888 25.402732465247709115 25.919963799948490646 26.668866098801039755 26.362976809886554008 25.608373417231099722 26.35638953178220234 28.863709673579062809 29.708581636800914794 23.110042481467097275 19.247085399442180886 18.072769509394206011 18.16250346461632148 18.222727004151206387 18.220348502921059008 18.336648063405110776 18.410134698304879919 19.738238913421259468 20.720244123254850876 18.852185584769895144 18.679792916010544701 18.629842764644529041 19.049540424338275102 19.846175872676262486 21.092690643783448934 21.216662956493365755 19.373486946727208391 17.323777067118527384 15.804653364951851913 14.874316563153259452 14.348461959523206133 13.769331844867476633 13.316603172256558096 12.969177761237963509 12.655196095291186609 12.492654747065659038 12.358468092003215943 12.404214651104158662 12.359979974912473466 12.402241800522595838 12.679499456692392201 13.023201102229077009 999 999 999 999 999 999 999 999 999 999 999 999 999 999 999 999 999 999 999 999 999 999 999 999 999 999 999 999 999 999 999 999 999 999 999 999 999 999 999 999 999 999 999 999 999 999 999 999
999 999 999 999 999 999 999 999 999 999 999 999 999 999 999 999 999 999 999 999 999 999 999 999 999 999 999 999 999 999 999 999 999 999 999 999 999 999 999 999 999 999 999 999 999 999 999 999 7.4182288190346836743 6.59516470879375305 7.1868362682904116667 6.2595367781264581453 6.3269114831107531316 15.121848525209818703 15.859249409441712686 8.241252189405187778 6.1786465530029515136 8.0840208499086987359 10.932618258844497561 13.350007041291370058 17.176263948625393851 18.255617069005314335 18.395128244279600693 21.734561253806372605 12.171824249198191836 7.18449401439288593 8.3945028996115862441 8.5841910896821840282 17.737864559676562948 21.493068625995682908 20.006091498771407799 8.9247296868047421015 6.4652964625396895926 4.1505009684051596963 4.2356538772520178071 5.2635135647129009939 5.9134007269536841278 12.052998016652018975 9.1890319047034303424 7.732332350484520056 7.0909625453391313954 6.1711600350542079596 5.5097412090791149097 5.5267387882610412575 5.5392781813217872866 5.3733000795080245737 5.4426042837830994614 7.4417570129524177602 7.4998409267879804219 7.2979532264699296107 5.8650324019413577759 6.0268329078693616552 7.5218954167364895369 7.9990504576148104832 11.727138605777932767 13.346985994154374922 14.441928528992775682 14.839748830581354966 15.127217907835897037 18.392309906017167975 19.990841543612098974 21.381006933763558209 25.930006507350064737 23.72199799874846704 24.793945431616521091 24.277529378705612118 22.729567407256435985 23.363219957979961094 26.362825621008070698 28.257458148463818759 26.577339259508772074 20.296083569357175946 17.527025986188501605 17.452787678888537215 17.714253104737629485 18.025673485244780636 18.135163286073954225 18.213081225274887487 18.364784203127580753 18.531389948598118167 18.611555026218969289 18.660721756749296674 18.85837004447948928 20.379991539846091797 20.31137760324608621 18.498825992696740883 18.132789538421736353 17.672553375076386573 17.168434464343235391 16.590139193068996093 16.064069184573956051 15.477610757098593908 14.934750881598546357 14.465888624110069927 14.061405287047559654 13.763220107607361697 13.406505400256246929 13.169124182459738037 12.893813667043463767 12.685798739543365343 12.628425177219824604 12.679051472517416599 12.676968987258383947 12.888800648813562688 999 999 999 999 999 999 999 999 999 999 999 999 999 999 999 999 999 999 999 999 999 999 999 999 999 999 999 999 999 999 999 999 999 999 999 999 999 999 999 999 999 999 999 999 999 999 999 999
999 999 999 999 999 999 999 999 999 999 999 999 999 999 999 999 999 999 999 999 999 999 999 999 999 999 999 999 999 999 999 999 999 999 999 999 999 999 999 999 999 999 999 999 999 999 999 999 7.4495258744259409411 6.0822197340905503893 5.8219259885330822968 5.8571609380852009963 6.464974040889034157 13.723035087037064983 13.262278772201803179 7.7679667973441359763 6.142626345751352801 6.3813176572899887873 7.4474502175836940765 11.509404708962915009 13.620478629103285328 17.575373372179001308 24.661362184816532306 14.211203097240213467 14.426242678353141002 10.12091643640159333 8.2461731711592651806 11.953131935843414269 12.551180054575178602 13.471286090044198858 19.594088880803301578 16.499784293035716587 7.7504876148119699053 4.7020711332266760252 4.0659698750288706393 4.6193424827256857057 5.5142203571291341646 6.1996685820267964928 16.244640232049167849 15.740421376644595952 9.2212324741808835427 8.1698209070827267908 5.5529977240100025782 5.2781426786554437314 5.3110205959158021116 5.2812910041830321006 5.2793976285019104111 5.9123012780054056137 7.5585078341193341345 7.7562657452676138092 5.7630136217171168411 5.5753111626341915752 6.2224724073873280972 13.5656998224788925 7.7996906399643162189 11.516784415081760429 12.770789481214238847 12.583945890009124113 14.284673972331342284 16.384665251611135517 18.627295435943572954 20.302774702920501682 21.206738515861740524 21.642634104912087167 22.682506232859978468 21.541726254297426379 20.541062528390668263 21.212603711249244043 24.582067263556258041 24.850118473761277471 22.585185475677011624 17.503096016670014023 17.437258441494201122 17.406336970624462168 17.55018475873436401 17.85618956650342426 18.066442221593366213 18.210609832679292452 18.402316437443108299 18.465400614564451587 18.565219482908172921 18.829280911275482424 18.794504839529658113 18.952981797223923621 18.341551355099316112 18.215201334905398056 17.99137162569361692 17.682343314269097334 17.306027172869011821 16.863925903974685383 16.346284172880132246 15.859954041847901252 15.254058190712489917 14.780585625109257109 14.392227208372796454 14.055416048075775493 13.82825936984630566 13.475676708735210951 13.378290664405652066 13.108212439471362387 12.959330376613246827 12.943732434099375794 13.025985710684121699 13.13644873312613548 999 999 999 999 999 999 999 999 999 999 999 999 999 999 999 999 999 999 999 999 999 999 999 999 999 999 999 999 999 999 999 999 999 999 999 999 999 999 999 999 999 999 999 999 999 999 999 999
999 999 999 999 999 999 999 999 999 999 999 999 999 999 999 999 999 999 999 999 999 999 999 999 999 999 999 999 999 999 999 999 999 999 999 999 999 999 999 999 999 999 999 999 999 999 999 999 7.3416507127797290266 7.1050712354539244942 6.4187486869012282398 10.149731164936158123 9.1153410653915223349 13.240931353261931491 11.547197104078897212 9.0230066823632135709 10.910011823125502772 8.0795001424197749884 8.8929840833646434106 12.897791653399794498 11.306232707219734834 16.418989254978445302 17.240132760733995809 9.2069772925484283377 12.587552416410773048 7.2984085273442715902 12.028289476111361012 14.320372156454533652 14.448430330174639735 12.672479830828253355 16.930117538194814131 20.303687383479630313 21.27634626313517785 7.5846640140553898135 4.3103169604765421141 4.1164672070512429158 5.2629557876380701487 6.5217308057979161973 9.0671890848605105617 14.601290973153066233 10.139771502368377654 9.1497610732886975882 5.8803862335422847352 5.214874083109683589 5.2568487682042279729 5.2335060338709764594 5.11891269867608667 5.2226087537649696912 6.9410973536539914974 7.5188251539624326725 6.6555255415362104543 5.4393593273419451606 5.2361324847918453429 6.4115222570431953386 10.417421001566987471 8.0762377440033414899 10.117067783485001797 11.761715539778018424 14.219701655774954929 16.685325849264806664 19.613766755884341819 19.215606503384538684 18.931379547039448141 19.831739123924453594 18.166150611739915632 20.740596641335912409 17.932692018228344466 19.833711689387506283 22.882981548685066286 24.728837063292811393 24.457979619680333627 17.818918103376216067 17.039592269562106708 17.347106433873239695 17.446286151033206124 17.696551539393873043 17.931246809318434288 18.1949897543433039 18.289916075430785014 18.483971790214702935 18.662983556283172959 18.788589001593720695 18.78001554196213263 18.643925072684574218 18.47990933588366147 18.374906675028189085 18.494617047646521257 18.643189577842981919 18.438535133903901198 18.347713237356568783 18.00562930223933833 17.130845548775251785 16.640193413700330893 15.313157319606339968 14.569170215589620554 14.116141060165460885 13.902876059097104999 13.697994718220197541 13.520745223696598813 13.399155765600024637 13.235619018745708786 13.186828281811969532 13.33589132598461191 13.24452319465741823 999 999 999 999 999 999 999 999 999 999 999 999 999 999 999 999 999 999 999 999 999 999 999 999 999 999 999 999 999 999 999 999 999 999 999 999 999 999 999 999 999 999 999 999 999 999 999 999
999 999 999 999 999 999 999 999 999 999 999 999 999 999 999 999 999 999 999 999 999 999 999 999 999 999 999 999 999 999 999 999 999 999 999 999 999 999 999 999 999 999 999 999 999 999 999 999 6.8425884080180336966 6.4649575817602409344 6.075689070407954695 6.4751837603108057806 6.2702683893701038897 12.052672336631037098 10.584124790854943399 7.0485441379276574381 6.8820089194073448269 7.9526247458337859797 9.3638513608646025688 7.1737613539362303783 8.6642829124691438381 10.826466969449720423 9.4383448659905351263 7.7466144027572712005 10.143033051793366894 8.2989955961138601737 8.0263090595578514552 18.011571996194469136 19.113341747866837039 16.141678519894064436 8.7765952986368560573 14.570147256991383244 24.468182324318096477 21.05929530697011387 8.6505377156739164946 4.3464187968590977107 4.6723995932688060506 12.884625969005758961 7.9364431334126885886 17.945140746036024382 15.20168147902692013 8.5631850624301080188 8.6463251558721196943 5.3606386178894132044 5.2748061433811601617 5.2237259251115331082 5.166127634299868987 5.0337735918651986822 5.2771989098529781259 6.2645657251038446844 5.1479075991336902263 5.3211655416495462489 5.4291328984676363589 6.3500701883000649772 6.8664516415576697383 9.3390249544984786922 13.495509189227924196 11.997781464578867627 14.266386794518140846 15.835710305149206079 16.799805485743490863 16.48621365890065249 16.396690124890760387 15.920955779734715207 15.573587040189513786 18.607564920047874324 21.260773199668388855 22.677902420863908617 24.649528381270787492 25.75964915159197588 25.019662242206393898 18.970015227726868545 16.975868189284994969 17.072422841034342156 17.383795176461390497 17.623753403981474719 17.822677870701582492 18.094315913196751922 18.326948960397604793 18.647041614670655463 18.831751003942212463 18.93102742942256711 19.373743629275089972 19.199165503650924336 19.273312774842519701 19.113618725565189038 19.38476524275597157 19.322833269802156764 19.162961332056095642 19.011888643510509667 18.946609161499029739 18.766386436581086627 18.298770199986932994 17.39539436238520409 16.569351772379640408 15.920088723636322214 15.580086872179700563 15.241589788764640545 15.590864808055240331 15.671553462632656917 15.441492644538547196 15.402960836448613691 15.227481632762025043 14.711869444512904792 999 999 999 999 999 999 999 999 999 999 999 999 999 999 999 999 999 999 999 999 999 999 999 999 999 999 999 999 999 999 999 999 999 999 999 999 999 999 999 999 999 999 999 999 999 999 999 999
999 999 999 999 999 999 999 999 999 999 999 999 999 999 999 999 999 999 999 999 999 999 999 999 999 999 999 999 999 999 999 999 999 999 999 999 999 999 999 999 999 999 999 999 999 999 999 999 5.9092738218130893557 6.3337705902395518009 5.8372197825100444746 6.0216801918199838184 6.489610848125190401 12.84676619018901178 7.6245626114829114783 6.1505593006516523502 7.5407953465152441908 10.087131054163169352 8.2163483414682580985 7.8461638476925550378 7.9336556486745388739 9.6595739440270662612 7.4566768161189509456 7.3436601541542438909 9.8254400664897136863 13.449011311373606503 15.32730197274503503 19.970883563325035226 19.577010375074014092 11.623988928756521233 22.264400264317703915 11.816014955881110282 21.871335191587494506 26.757787952191698366 17.888399290921547902 6.0627273103889178785 4.2272189725950539696 5.562384833433890563 12.754900144541815976 18.355226320382886485 16.092980509893017427 9.6522074410576159664 11.036867120939076514 5.4115631660020451221 5.2382439717691333669 5.219304523617579683 5.1513382671864587081 4.9737794009079276947 4.9624293583366148042 5.3404500350705230716 5.1867497842683967235 5.2937742120501711796 5.2598457073181483779 5.4966612329462902764 7.1460975927054342094 7.11238592523312807 13.179925064397545853 13.189503958895933522 14.698468238251862772 16.380200908486337141 15.038353416066577495 14.202104078578116741 16.245237117137179439 16.182356405425942114 15.990823525671249428 17.406990036767631125 20.950879847808071332 24.083583128024070419 25.769626715956110985 25.300410197586046479 23.098080629943609665 19.074303392403720636 16.841911976568550102 17.898802986428140827 17.728369510420826316 17.394732558942820333 17.567057692871976826 17.948702786767768202 18.264667588538276988 18.5800035842472262 18.863729697749057834 19.038759989093403391 19.118196905840608935 19.360383121100802839 19.562044126140651912 19.554514632457593137 19.768844676438380503 19.318775881437549202 19.734994830776482644 19.718922245348867506 19.194698743522433659 19.046569105870151617 18.813987951976592683 18.451460788997383844 18.12680731102832965 17.592525649485324379 17.331539163786985114 17.31589269150147814 17.6424364431499896 17.77537247071840909 17.681113029340771448 17.539524625198961161 17.233883976711194208 16.600446855309879624 999 999 999 999 999 999 999 999 999 999 999 999 999 999 999 999 999 999 999 999 999 999 999 999 999 999 999 999 999 999 999 999 999 999 999 999 999 999 999 999 999 999 999 999 999 999 999 999
