ncols        192
nrows        30
xllcorner    1771145
yllcorner    5472724
cellsize     10.000000000000
NODATA_value  -999
-999 -999 -999 -999 -999 -999 -999 -999 -999 -999 -999 -999 -999 -999 -999 -999 -999 -999 -999 -999 -999 -999 -999 -999 -999 -999 -999 -999 -999 -999 -999 -999 -999 -999 -999 -999 -999 -999 -999 -999 -999 -999 -999 -999 -999 -999 -999 -999 -999 -999 -999 -999 -999 -999 -999 -999 -999 11.04695210481098222 11.910737776458260484 13.344224281036051849 8.0769757943551123702 10.4277003795737091 10.742325057846555225 7.7935456003989074247 12.775684648751710171 9.3527629628023909447 9.0360855721757982195 9.2897772062122552228 9.9173619422695526993 9.964566516317304945 9.1214245674349641035 10.888630426723445055 8.7134781491686865706 8.9435455771338290276 11.536742518159849524 13.076592649437639437 11.706759412734166759 14.558354242287784075 11.454752719594313959 9.676165143435639493 10.695688793149198403 9.4583168838525093491 9.7338589489222329121 9.9230677037389529715 9.5936306418723429346 10.12387099681156144 10.693883416327013336 12.815507273805586408 12.914994596735327903 10.129526473619467453 9.1897146136217351398 10.493471966529234862 11.257579490271311329 11.205039334937994866 13.74399263478834321 12.221297285862846138 13.74967644856570459 13.113156826434655855 12.149102411026573733 15.396915073337353874 16.459101468901675247 16.750294687122067927 12.108908707038006369 11.982727274923442806 11.548790054858597998 12.260191800017363306 14.875466198635132642 12.844717305607010971 15.499707366529616337 13.453139460539340178 12.983081971244812891 17.029801073505691278 14.401066969075220214 13.535541651192076529 17.80740256163283064 15.168054881596610528 15.903246164888164671 12.526066055128556087 13.544509518342318088 14.256329998388022062 15.337265610298226548 14.601231335758837915 13.115312569409594445 13.190816889953905999 13.127314212497307011 14.789592513790234207 13.367524621887957537 13.344366680803563696 13.575854745093668186 13.563314870783635513 13.445440719518716222 13.560711789906939373 13.374379091512707873 13.436074077393362458 15.955358109802677546 25.810051129707915152 26.177461868768826747 29.028359756477215115 27.891965011460296608 29.665496608818937574 31.236081198473904408 31.460910971172612705 19.26715300116550722 15.902061491993771725 14.496077790648785211 15.538360581736263555 15.668770129957058757 14.278854125715730206 15.051344354528739089 14.306028634047669001 14.445227890663970172 14.821584053801769798 17.669961125684896075 15.121248713706373579 15.213965012189667902 16.505012297600675453 17.16025022570610048 17.965972808656996307 15.071987261196806429 15.592392792256447365 16.108425418805879303 15.858451391929657248 19.567399990090379447 17.453112064060793074 16.885612169815626515 17.909457334720887189 17.080268096596004312 17.02942642768794812 100 -999 -999 -999 -999 -999 -999 -999 -999 -999 -999 -999 -999 -999 -999 -999 -999 -999 -999 -999 -999 -999 -999 -999
-999 -999 -999 -999 -999 -999 -999 -999 -999 -999 -999 -999 -999 -999 -999 -999 -999 -999 -999 -999 -999 -999 -999 -999 -999 -999 -999 -999 -999 -999 -999 -999 -999 -999 -999 -999 -999 -999 -999 -999 -999 -999 -999 -999 -999 -999 -999 -999 -999 -999 -999 -999 -999 -999 -999 -999 7.8723436608537973314 8.6474596853020226916 8.8987228563590292651 13.908497457410069487 7.891071786636111085 8.7948533515593876331 10.179327822568014383 7.9441261048424784974 13.903698396206488397 7.6452609937022248943 9.7038359987007130059 8.8853335370952546413 7.3922953596239011631 11.377892003225326789 9.8395512190020610888 12.262085902950017768 8.6477636724264748125 8.221782459256393949 8.8500496525799992042 10.816203503768440086 11.700049375386329942 11.114055720036896346 9.1976856268166606867 9.9051392483938638378 13.190248507219195062 10.260348568414970671 12.104959487024910203 10.708125078454569845 13.867864319323841116 12.202093160031781238 10.581550310753614852 11.226279639111293562 10.479690815596566011 9.9828669564629368693 9.2778521747391060615 11.004363611327503847 12.463230414215633601 11.510452405504764783 12.753543498141338475 12.241126068851873043 14.655568339515010479 12.546031337727640675 17.291651497204938437 16.842910896617404148 13.498572008027368341 11.935927724897773317 13.549932256236415284 12.126891176578261877 11.933651238664049643 11.52884754759783803 17.35301634308688179 13.478596115835964397 13.720468018347613537 14.75732637698958527 15.718919989688787453 14.299435703209354642 13.340814138157655933 14.753630023922026382 13.537405683079150265 19.281251629566451555 14.574261841545055773 13.620395066392017469 15.48934719709622776 12.573620674361567495 13.412417645836091751 13.315938723854769066 13.172028501101461728 13.340385513804411843 16.334842565774152945 13.405742798384924441 13.360063517573491865 13.357597451712297953 13.26181885136243821 13.47946256181839253 13.596179088561411774 13.317109348862825158 13.257548501921801787 13.29358813524788907 13.359525391898229074 15.126527498187526177 22.89599184325126302 26.243314425610762441 26.932545020326294605 26.994929843002509529 28.920200586466890513 30.458698798055714008 25.034533241682076721 18.3921030443783593 17.430721402930089425 18.706566837274579029 15.512296905315402284 14.547792808658723374 15.339170490259814272 14.286123371064142873 14.327245750076723851 14.843424180246264754 15.341611757075455102 15.929505398547190609 17.159844648212448703 15.494468234031572251 16.470051994388512639 16.71238973523621496 15.73917040473282114 15.305798814732487045 16.202899743867551052 19.047122795960387265 17.830317077836394191 18.841025282229839632 18.921984344847100346 20.609287576251869467 19.657975837463453672 21.622871491721681991 17.7928185035527342 100 -999 -999 -999 -999 -999 -999 -999 -999 -999 -999 -999 -999 -999 -999 -999 -999 -999 -999 -999 -999 -999 100
-999 -999 -999 -999 -999 -999 -999 -999 -999 -999 -999 -999 -999 -999 -999 -999 -999 -999 -999 -999 -999 -999 -999 -999 -999 -999 -999 -999 -999 -999 -999 -999 -999 -999 -999 -999 -999 -999 -999 -999 -999 -999 -999 -999 -999 -999 -999 -999 -999 -999 -999 -999 -999 -999 -999 9.1035492772323891586 10.02924792493815076 7.7207923788632770723 11.519284170965372383 11.604271677867927792 7.7781523936172609623 7.7373405478722627748 9.0904634359614444605 8.3949606614719147757 8.5427788082641527012 8.4167574687589681304 9.1421031432795398786 8.8718251519131001714 9.2181096005983782504 9.9336380716361478704 14.706563162819845658 15.140883054429869148 12.367482263414480315 10.260147840590995827 9.7544634348174810157 11.738185513804943128 11.715620261512293965 11.335512043377855562 12.163347492101662439 13.039954037421999544 10.486989172773446555 9.6408754327154539965 14.31511092666630347 12.474170205192496752 13.478872621057975678 17.508483760898460702 10.651291605197524603 13.203461571471418523 13.342012021478682371 14.145739061686953164 9.4514729991719317326 11.440424360910869339 12.752123571229388332 14.025615579451160997 13.883691642749338868 12.426081404478569681 14.731731675816899241 16.855972121831886312 20.662219264545292674 14.974356560544912043 13.942281898277148144 16.607331486504953943 12.508758502150985947 14.861711590747011869 12.954628089358765308 16.6621350416221361 14.285860557759416878 17.457619091464941619 13.050565357923494147 13.251794505531258039 14.256110173754063197 16.252396061422331286 13.66528036714854899 15.493274561233873143 14.5495468199045348 14.41929005110184292 16.514131486682082084 14.0253322313578348 19.228868501866113405 15.070253712619651409 13.556320744235245357 13.135044365058458737 13.64110283597830886 13.295626359215379608 15.041891052336803014 13.353735721282657067 13.290898359300197029 13.270950934679753175 13.305527685787186698 13.254322255130448482 13.499006887267697152 13.281964287708909467 13.345188591526337518 13.271071517013542262 13.797564148110494031 19.455413259529564129 24.267595665982007347 24.853923263180600856 26.915884046407203556 27.453019666764397755 26.536814853511735635 27.505569041214272374 23.49780786477917971 23.599988998899650738 15.36075650155492589 15.488693005839461847 15.323856150564045819 14.619372905756801373 14.449865450561150126 14.385556144484105801 16.423380923245087359 14.464828449502075358 14.779816442489511985 15.247664306574657545 15.87850741018284495 15.398067307610540766 15.916034207204406314 18.128062391201865466 15.633900603325018963 15.771244549776245236 15.630088274162508455 15.91682266085546793 20.333747688459268943 20.974038042513633684 19.332567854411735198 20.202709193827619316 17.82477949893237934 23.860141261754826303 24.2976770603924912 23.837023471631152205 100 -999 -999 -999 -999 -999 -999 -999 -999 -999 -999 -999 -999 -999 -999 -999 -999 -999 -999 -999 100 100
-999 -999 -999 -999 -999 -999 -999 -999 -999 -999 -999 -999 -999 -999 -999 -999 -999 -999 -999 -999 -999 -999 -999 -999 -999 -999 -999 -999 -999 -999 -999 -999 -999 -999 -999 -999 -999 -999 -999 -999 -999 -999 -999 -999 -999 -999 -999 -999 -999 -999 -999 -999 -999 -999 10.008123975436616249 9.1350821171839253765 10.091550104571037849 7.9729878533112570338 8.7929665988165144341 9.5310566100723672633 7.1540232180961735864 7.7421824367720502025 10.215113496074593513 8.6327523716064664683 10.730314272964170286 11.293208380755785925 10.051914755065215701 8.7001124563663232436 12.197627987250390547 11.470604322160948385 12.46428589095380346 10.640035770653206271 10.419568230362040495 11.008530999466000111 10.052846746406570944 9.022805978206015709 10.858383769815203479 11.451763086132348946 11.753783599154511208 10.374707884583184381 10.695254748148855128 11.291995184186811585 10.59744150131393603 12.381615988656381688 13.896696885700496438 10.906457963738013461 10.231819050635092339 11.161399499990620754 10.417565573051126293 13.411088937838460566 9.5607463207265812599 14.616760482479822514 11.772796885222456709 15.013205361149381645 12.570940338010117898 12.087180159902944254 13.540592312059956726 14.732839106499028503 11.289635623297748168 12.811557503851259909 12.117356862771510251 12.893188117529453152 13.534339073027426892 15.406863617669994682 12.525709030500774332 14.643047962783821703 14.301587204329059944 12.617357028643731098 15.10731400488236531 14.609734685490023409 13.692760555648149534 18.697008591378576625 14.606902438366910602 13.293026341264786439 14.09973883484006052 14.279435732365364231 15.998089955769087211 15.010338682930479237 20.266664280014616395 14.046608194775702216 14.014703128502501883 13.830614773368109738 18.146667126354643074 16.827625782266469656 13.942531830486450062 15.812933825511729324 13.347841478965742468 13.274920718565098809 13.346253278412243404 14.774675231389284846 17.289945421700981143 13.924270307666754221 13.306230516023859423 13.568801015854580427 18.488703801411471517 21.46988358429301158 25.41503891670885551 26.306457918169321886 27.704904482067448157 27.358376332955153032 26.025249948984100712 26.169847736086822465 20.869878237956054789 15.327411449881040539 16.210708103072700936 16.611090906784237831 16.522673060781517762 15.449290535299136096 14.803748666355195596 16.275316016210592096 14.565131064478302747 14.647456052921819847 14.894277978373814619 14.806406209806883822 15.316840118187222686 15.600887060961206032 15.990187680044833485 17.531611104086625375 19.267161158786443309 16.860863678726353498 16.346982034220896907 16.176477931886878991 19.220293006235269928 19.417056336342817247 18.997860781714507539 18.766314285485968583 18.363256391567436054 19.602133211281014269 21.078725164542671422 17.228905062181954833 15.036067780653619153 100 -999 -999 -999 -999 -999 -999 -999 -999 -999 -999 -999 -999 -999 -999 -999 -999 -999 100 100 100
-999 -999 -999 -999 -999 -999 -999 -999 -999 -999 -999 -999 -999 -999 -999 -999 -999 -999 -999 -999 -999 -999 -999 -999 -999 -999 -999 -999 -999 -999 -999 -999 -999 -999 -999 -999 -999 -999 -999 -999 -999 -999 -999 -999 -999 -999 -999 -999 -999 -999 -999 -999 -999 7.3400613181703553423 9.3220932298191687693 9.8629494744613772639 9.9173063467210909039 9.638945913235998475 9.8031355514214908453 7.2344801814730717027 7.1105878424365647206 8.1070149266216073869 10.91450063382508695 9.1298718544606281 8.3997364451188474277 8.2623330241284929087 8.0447309872328496283 11.45167689311723791 11.296403409229293757 9.7223851186799752355 10.584895565187389721 11.088969478760464682 11.906442595550492669 9.4752362127378066958 9.9737580228084929956 9.0938272260112995582 9.5429362740743002291 9.9112825185482673618 12.78848514121492741 10.753468583438142048 10.394967637692129614 12.545069318435654537 9.9204224151063300496 11.89527302555453403 10.287448571587184176 12.126041981417971627 11.340927506582691109 12.42169330353577017 10.801684878454823391 10.162842168822875166 10.067948850429178975 14.475620238971252718 13.225651690132252725 13.272998879572522668 13.542101447697085348 12.622598847979762837 11.048664904661993802 11.041987927810614778 10.899327654659177966 13.540854036556268625 15.542513503951383314 13.782363047459421423 12.342360464190711866 13.486084931647162932 12.356673428370362089 14.305211687910835749 13.002738157089464011 13.858434466989944411 15.135325667027954566 15.351232595331643083 19.606234486874647871 14.445648632375426956 16.618278681615638703 16.105078112807500901 12.873548529932694606 15.833325825532227782 15.598408619605102388 15.327516001382567978 13.557494697559159036 13.22460111399059457 13.981335739507695592 19.421755368389383989 17.010548095559045123 16.565739172729855966 16.467367721841636552 17.010847871218537364 14.961928644144110834 13.539785541402268976 15.960599391355110299 19.414796543762680159 19.090034114181172242 16.848776615340973706 13.922438426962347791 17.320980134509262882 23.330781414411397634 23.384234613423231508 22.23558959843665761 25.753568639085219871 26.857235690372437631 29.366303153165276285 30.971615634993220567 26.020643368618710412 18.830306169996568144 14.499305288252141821 14.716519454244055609 16.721455491834525731 21.756007524635084138 16.762636427596465438 18.26497664879173044 15.571049570060244704 15.243968321902357843 15.308883745946078037 20.448629597708972483 15.388154884825125279 14.871692835372190444 16.235685648340975717 18.852218454924312141 16.586753561938561319 19.699192364995184334 18.896213362744184394 18.654452232246892862 21.386888700415351394 18.137316096701542989 18.20074199345272703 20.922716584797875328 20.122192258054599989 21.187535424553683328 16.970843032172101772 20.033381618327503304 14.978739576324867855 14.769383291294609251 17.888562225854041543 100 -999 -999 -999 -999 -999 -999 -999 -999 -999 -999 -999 -999 -999 -999 -999 100 100 100 100
-999 -999 -999 -999 -999 -999 -999 -999 -999 -999 -999 -999 -999 -999 -999 -999 -999 -999 -999 -999 -999 -999 -999 -999 -999 -999 -999 -999 -999 -999 -999 -999 -999 -999 -999 -999 -999 -999 -999 -999 -999 -999 -999 -999 -999 -999 -999 -999 -999 -999 -999 -999 6.7860206889410115139 9.4388295759774241134 10.157771037574452322 12.044738893213596143 7.7028679188576196779 7.157206028675318521 7.8062601972461580502 7.1656017262918068056 7.2308375925765862036 9.0498635038822179411 9.6321025409905374204 10.856075731102436066 10.847509670034989782 9.6909102810370928438 9.5659087313277026965 8.8481624481274199212 9.720710881202439424 8.9252056121640048758 13.787090353677783128 15.442781166296230211 14.929401010156402307 8.8307650509309496556 9.6660033696954066329 12.092508588624280463 10.449501490883902122 11.474124931610383271 13.167126171050272276 9.4497590448244732642 9.7372444060202116844 12.552753751728173981 9.7667036415157149065 13.257495259475774674 12.950977968619177716 12.586525108107766258 12.126899474280184776 12.489544489024627438 14.125111440851808808 11.072508370799509336 10.406793630016590413 11.579289670820802627 14.202305007581763618 16.881303838978556797 13.386579778838912702 13.407612908156295362 10.644701333807315535 11.080222245176853946 11.009446946490731634 14.358671125603647667 15.417077693956976248 13.951384476524387068 13.952486815060403558 14.732909450344646274 15.493672256090881945 12.938114449264480399 14.868467493770594956 12.92828255184819497 15.70870522518528567 14.724747130831648434 13.452739270049937303 18.561333334015127861 14.875706655736813389 14.374350456407736232 12.928354788935106257 13.269101977398154446 14.633964149890610784 12.950961740716623538 13.116807838205552628 13.265060658755542633 15.953232088518779719 14.292247984856739862 14.006872100637842493 16.522201817555451697 16.646776508987056076 15.030364731696323588 15.998699858122463979 20.480931420388355235 19.015722537421510197 17.548822563453256862 15.226336547859332882 18.362879033839135445 16.526133137808113105 23.223602117323942196 24.830580939276391206 16.193014740992971667 15.245975338236702257 25.072328254686826909 26.518543097247690099 27.533747273173219128 27.129810716888787425 25.053019480936459473 15.720006028927077324 14.475057323782140273 14.746331133298536287 16.120737803361819829 20.832413711077190754 18.672616325405765991 20.400831884560130192 17.299418438419188249 15.70914002003790344 17.570971156796474588 18.196583610561333444 23.585242782251775395 17.232029367775588469 21.308888556716691909 25.503794587760292956 25.407356007926196639 17.716178435734335039 21.181231561832245092 21.62454154014870511 21.436358523663699316 20.86671665293693323 21.753159576791052388 24.60956364676180641 18.697358157039072779 15.900350944328602409 25.291544964915615878 24.565967811838749668 14.898879800258159278 15.188136428641175968 15.92789281817369762 14.731663019685210969 100 -999 -999 -999 -999 -999 -999 -999 -999 -999 -999 -999 -999 -999 100 100 100 100 100
-999 -999 -999 -999 -999 -999 -999 -999 -999 -999 -999 -999 -999 -999 -999 -999 -999 -999 -999 -999 -999 -999 -999 -999 -999 -999 -999 -999 -999 -999 -999 -999 -999 -999 -999 -999 -999 -999 -999 -999 -999 -999 -999 -999 -999 -999 -999 -999 -999 -999 -999 7.3406039789410257868 7.5634860106617383124 7.664311723875913529 7.7390553084589583932 7.5657497070972068443 7.4397513789977356424 7.5666458069396220765 7.3670938930480023288 7.2752327123876661119 7.2720514547768280167 7.3291002418986881395 7.3922907726152935481 7.525592178198300175 7.780967153446934681 7.6948003512830460693 7.8644751724478823007 7.469722104378573313 7.4452986244591139453 7.5608840687463079178 8.4444489014310235575 13.285201219791591853 10.215512869482708425 8.4777560294432454668 8.6450077761692263323 8.838218135651368712 8.8095935756415268969 8.964254423323215093 9.5892473082570077736 11.74687359700599032 9.6703223556360899948 9.9277364717940379535 13.438127926586849625 10.511216683747010237 10.314855537844271893 10.20934736479118321 10.302854810276706132 12.385573863203944711 13.550855295622264762 10.599239098808942217 18.087763873480795951 16.488311188807848851 14.070092677501607525 16.107904643735942329 14.278747542997223263 12.475700075429140057 11.296192500560684024 10.975800503685828602 14.757089160051755528 12.249822867286168204 13.285986736780884598 14.362809928098876355 14.891775682587587326 15.997745130438124406 12.899707017928550457 12.608983467536120315 15.02345974871580836 13.613561604551145834 13.540685320330288377 13.258889306903887118 16.588094064032475217 12.804448763823417679 18.132366941264638882 16.759142841670986002 15.513133457716385522 13.040274469208211983 14.294003076672851194 13.262264557491558747 13.275761970480687069 13.241178131417676411 13.624964970953337584 17.779978083354457397 17.226406353829009532 14.498899459789987176 14.5711192795445168 15.777665054007632861 22.665556071039283381 22.467296486161703939 22.119031289149639008 18.112663432932922802 21.872165872032049094 18.525341151534966855 19.985131627255864117 21.77870601415459717 22.921369532391970836 21.913462987239029189 18.118014311018207252 20.124322092365343195 15.580195394821883426 22.464196464439439183 26.569247462461785148 20.637119293337065074 15.354003066001988387 14.932194085458986521 19.616560010047880525 18.687018442188346512 23.008351133434807423 24.207427298971385454 17.873880704412556497 19.802007338051357266 23.394003584563446196 15.993562903750756732 17.493288391154578676 25.240963687710394225 26.529948980345565701 28.244900177720591472 28.116894061084611423 28.460470310856848641 19.347949328712370942 18.196972660780755149 26.927084026740168099 23.437119976359127804 24.694200361167176538 26.078722790079638116 18.502029161179116556 15.389086322804407914 15.087831211246340857 18.377227640756498062 16.730135327133929479 15.039176474301767072 15.230701694995849138 14.869140357305147049 15.181330692996464649 17.070203682629472297 100 -999 -999 -999 -999 -999 -999 -999 -999 -999 -999 -999 100 100 100 100 100 100
-999 -999 -999 -999 -999 -999 -999 -999 -999 -999 -999 -999 -999 -999 -999 -999 -999 -999 -999 -999 -999 -999 -999 -999 -999 -999 -999 -999 -999 -999 -999 -999 -999 -999 -999 -999 -999 -999 -999 -999 -999 -999 -999 -999 -999 -999 -999 -999 -999 -999 7.5346262107613473091 7.6530573895922540117 7.6533013374486653646 7.4070145172521790755 7.4251067413235940506 7.4051847925418154972 7.3238377903375297961 7.362056484176248361 7.2683040620626115924 7.1872342795618662237 7.2107812943137012951 7.2084586686067000372 7.2804367713386914929 7.3779930723416082827 7.4854481777299897161 7.6207407367584156788 7.6764365375396987901 7.7611692322360781304 7.7619170586134211831 7.7797802483783007332 7.9897504351590997729 8.1359581230151061249 8.3040136296468816113 8.2043850443070667211 8.0770762300628788921 8.3332866006577521745 8.358832864240104854 8.4890991706772958025 8.6702744742771855613 10.655128745151712266 11.327657375282617735 9.0227155074582796601 9.4949865543495697295 9.5071793862681115428 9.4125398889358873333 10.016446999339041923 9.9505221542532726886 9.9769334128639020065 10.050892372551151865 9.7158075726807773265 15.21711818304879138 15.150926949817595357 16.34871742026284025 13.39685241680869332 15.579964077259322863 19.507970172812406418 18.992549844067198705 11.394295585685735972 17.513451031084322551 14.688622752154103068 13.79168905098437925 14.451500670296139717 15.224685846294340408 15.464769881880812363 12.517276907098171534 13.641596563773550344 12.378460964418664503 16.259131761855005749 18.75915072904718528 16.004579910498872408 13.268756473160058462 15.30706849412556636 16.204395221824871243 20.951792963170660755 13.523717327849725578 13.294202420113830243 13.186798358381540908 13.403128835108869765 14.367126833692967836 15.634335357085273444 14.115652807538191738 18.036288181265039299 18.271995367867102544 14.425857616250304716 18.976652461408562544 22.158374429416639373 22.369057456187611876 22.526371533589692575 18.010503819717488483 21.090979563070167302 18.671494374036633701 18.7132835106653026 17.942680857490135082 14.534409912926808062 21.363108831776408181 22.485226418829018513 17.313857080571462888 16.738046768445727253 17.610617574507053007 15.252269389850873438 20.484699349293759241 22.859241126535088995 21.089283133349024268 17.085115636300809427 18.893137166023961981 18.267001743853363394 19.614689812026792737 19.372928624139522213 22.537485810373631523 20.977296877248157614 17.86248677442380739 20.656384044005385192 26.294692817007657482 28.659820594332469312 26.893362552860768488 29.500126072194973403 29.75984252934649632 29.07864382879492382 30.966747381869858202 29.027614595846479517 29.045108598474094208 28.978940630382187038 26.855418359511954662 22.384503402642387471 22.307886486072614929 14.521327687042978383 14.265499992840352306 17.023386906175858257 15.144758523929874983 15.099943075630575251 15.476299114667147805 16.694431257873965535 19.728686693332043944 16.891005907250352891 12.188241318780328015 11.197604893180708174 -999 -999 -999 -999 -999 -999 -999 -999 -999 100 100 100 100 100 100 100
-999 -999 -999 -999 -999 -999 -999 -999 -999 -999 -999 -999 -999 -999 -999 -999 -999 -999 -999 -999 -999 -999 -999 -999 -999 -999 -999 -999 -999 -999 -999 -999 -999 -999 -999 -999 -999 -999 -999 -999 -999 -999 -999 -999 -999 -999 -999 -999 -999 7.662393151844110406 7.8819797603702852484 7.8660569250266760832 7.9225711004141921023 7.6020094200328847123 8.6297998485742546393 9.918013439532227693 12.710000000000000853 12.583003018942626738 11.478960360933282203 10.309874105490299812 7.1003945650024054004 6.6436746702125226705 7.1743681718182825691 7.4134051057658201245 7.2509143973228420421 7.3797066696740438729 7.4397392543600959769 7.5662325355411716998 7.6287596625582132503 7.8802386387306730953 7.8087559908154791088 7.8525001735337838227 8.0016785075092258239 8.2913970321247809636 8.4121223017086155238 8.3678113885110771974 8.4462188112293414832 8.5900839004766211815 8.6505120051482613519 8.7681080488360940706 9.0059676739188976313 9.119911805675799954 9.1639186678723909552 9.1856448173355094156 9.4180827365639494531 9.54045095363281348 9.5864940298756629034 9.6933924724215270174 9.6688842831305930048 9.5672567395595073947 9.8827014026357602461 9.9198812613329803156 11.17479837640114404 9.6742324487493860374 10.962185895633419719 11.738972386288724081 11.199000812881379829 10.522585836018205185 10.548787549982201028 10.950917766258580599 11.005170424443713628 12.374687955214255908 11.263640682692143358 11.710383269415236995 12.972085511754105625 12.510872531128482521 11.462475109976365317 12.88983214057120108 16.955441170365819659 12.986686024470959211 14.090125445187133835 17.348515225046810428 14.236786333976800378 14.566610870392411314 14.655362135128783052 13.2815204768252908 13.358420467561883171 14.05467044194285009 13.887625581458825863 13.820079747643296386 25.799513513545420551 13.917496851614206577 18.928176796545180594 21.455622134976650273 23.053240767964553015 22.104077767821429745 21.77945712985342297 17.355315252729926812 15.777366766140715981 14.988921008309700866 15.892563792574387449 13.839020495749901229 14.390629599607112965 14.31694093407945978 19.473522178366181379 21.012755593075816307 14.931325162174928778 19.830081254819322822 14.492308981263334999 15.006152826262015409 15.067949212655848967 23.531734514644753631 24.016140710481405307 15.299128814275956501 15.844986414525555674 18.186163406099019824 16.452759720603101101 20.121849439745567167 22.820595329056093448 31.268074793286963597 28.883854775359043998 25.778403661417662818 27.527607286713578816 29.958750177474442467 29.802012361153288111 30.214605881972612877 28.854100059594166794 29.314598932124212638 30.213355821589246375 30.553327444536385826 28.538732928782831522 30.644059271641086895 29.617348507814444503 29.365299193670630018 22.791463170726608212 16.772429029091828312 14.120824503625829749 17.025244803632933355 20.197059631083007503 17.27297469791286133 17.851718333424663854 16.560832316264448849 15.584404810038799738 11.815552704291865993 11.208531453083542928 11.11684808871162744 11.357267991354930814 -999 -999 -999 -999 -999 -999 -999 100 100 100 100 100 100 100 100
-999 -999 -999 -999 -999 -999 -999 -999 -999 -999 -999 -999 -999 -999 -999 -999 -999 -999 -999 -999 -999 -999 -999 -999 -999 -999 -999 -999 -999 -999 -999 -999 -999 -999 -999 -999 -999 -999 -999 -999 -999 -999 -999 -999 -999 -999 -999 -999 7.8275513917455779023 8.8097721854277519782 11.858841803713737306 7.8776027722695065592 7.7266694160570619232 10.042839107956694988 7.6179629569909641518 12.341693046921902166 9.3243346878618424967 8.8741741733078089993 8.177876929175413423 11.28310619479866439 8.6250549027504206379 8.8273372361149906595 6.8604698474624674631 7.4438670727475599875 7.7395482566036308825 10.313629474625660265 8.8910790398202106388 9.5496574318446647567 9.8971470253776416826 8.6470596744722794114 8.316596336478758289 7.7089844417442030533 8.1233958932599943381 12.729478479622262199 15.844596714989062747 8.8056105809432452247 8.2315498834286113805 8.365946436861223745 8.4706777458379072243 11.059699153191253629 8.6775345109149526479 9.4356919217977157643 9.0135727581351883231 11.582593936639399956 12.285293047247019871 9.3277509549923678378 9.3068730454179444678 11.642921592766684924 12.412248084829853312 9.5930954924304430165 9.6476382067616093252 10.336053020257679691 11.782525575983681776 9.7319838992020297752 9.8845897954624124537 10.097856846042969181 10.191708245013725076 10.282963099660223705 10.592793421323980496 10.793565051987709325 10.746682945313754232 10.944784810317795376 11.20372276419431401 11.345165165248625172 11.480789990157211022 11.611771236276185348 11.720709422780979381 11.733136377728737187 11.874685874534712582 11.962587855486617627 12.890042888945377086 12.350915577459549155 14.060779238378270151 14.065087681231368322 13.276675903699114656 13.264202768222702389 21.108777606237801194 14.033254976255493673 17.413337739061610421 16.159309759469810075 16.084971651991217811 14.997898585560909268 14.220334783354594776 20.788257955956403578 22.672266717992204832 21.497726364539239796 14.211786835141897001 13.757859327784167647 13.985209604300342434 13.844245072468956081 15.106982665863380788 14.508886656986405228 14.893997896708173201 17.108543940351339074 13.815921790762770271 14.150711982851612802 13.998619612521011391 14.672893661325641546 14.87476505751444833 16.905624799413779158 14.570751461876515265 14.821811049643434544 26.721274359349166616 23.082144366911190758 20.600153156384610753 16.064246046436085891 25.145987809088016007 23.589877825262345112 26.108300083905156441 28.303964284010586283 26.43909766823626839 29.257341819401030847 31.130464141477759199 31.081799840635905952 25.424416600883194661 26.769783540079366446 30.544127153620923565 28.909657740630347433 28.295690118367737398 30.311259361241990717 29.834322972276233088 30.277358058220674053 27.274833604437770163 25.945705061896301657 16.087913993719116235 20.480114936498274858 14.550714330851940659 17.91296603241710983 19.484850882315694065 18.592130062354680575 21.456635790348919102 13.577951145192761473 11.668246595343795491 10.954135914322080225 10.916146606325245472 11.305010960994161806 12.401171752614127186 13.281394236918384166 -999 -999 -999 -999 -999 100 100 100 100 100 100 100 100 100
-999 -999 -999 -999 -999 -999 -999 -999 -999 -999 -999 -999 -999 -999 -999 -999 -999 -999 -999 -999 -999 -999 -999 -999 -999 -999 -999 -999 -999 -999 -999 -999 -999 -999 -999 -999 -999 -999 -999 -999 -999 -999 -999 -999 -999 -999 -999 7.9044360566270128743 8.7489265561661095916 7.885807858768503209 8.6622728694087509638 10.066290856615740523 10.453612197083717916 8.2525326287227578348 10.522840799442077397 10.096118067715099897 12.469932282717525851 9.3857764374417129716 6.9077817473135203485 8.4020960199769287868 10.983692305144607815 9.4141716628895277807 7.709302631070251266 7.9814543253229990327 12.048852173366562113 10.053521468653169535 11.078384487065171982 8.637180101339676952 10.680035473571837912 9.0909894330565066412 10.892160972516679251 10.184951046473905478 8.3398739855294383716 9.4504087307136899199 11.262437520824002846 9.3744793822042655762 8.1109513219400728445 8.3259919164290305815 9.5013928294178793266 9.6095058644384039326 9.2306388928363194424 9.1871862691533401346 9.1068616720634700812 9.3119922258435412488 9.4096345112278445555 11.238377771032862285 9.3402619915991920152 10.773106703705225939 13.840356568846127416 10.063793489436289263 10.151845396916518993 13.781851677590433169 17.011935443771474041 9.8215768029206689249 11.646468286004527215 9.9279767458407093272 10.054260225489818126 10.057424683648118702 10.091099484417400234 10.986436999397374947 12.691091983713219449 10.796109216129172736 11.518024351711229514 13.483721983529859401 11.587739233805953276 11.733865789422781134 11.950167320787453917 11.831303264898528127 11.929271450764082019 12.23848748595088054 12.66684117601909243 15.889653583169710771 14.895710524833825517 12.930144640062625427 12.908321214908708541 14.491880719450508153 22.722567601592736253 18.329750598121080429 16.361891470552432537 15.718504737948739702 14.407247064074271137 15.190375199037388754 14.784713786190568641 13.535805893880278106 18.033860948255849621 13.881697858918270683 13.490596554636011817 13.510260244637187554 14.435322535575235037 14.006545221983410343 14.768137331959842129 19.072760808074153971 14.367260481441523012 15.481919843530194569 13.542524001014225377 13.471382358084289521 13.708522935782482932 17.383472388606886483 17.058155597083629829 15.382803541465941422 14.224061343158952653 16.663893958354854874 19.351005698037202052 27.148800973430773809 25.541198125283166576 26.348134677024095396 32.243897149873568253 29.682369661915373626 25.740360418629101957 27.406499498826732975 25.581896133680761096 29.901009991036382019 32.89329488920936484 30.574831771064047814 20.699339139128369425 24.532674151874036994 28.698891173082603956 28.446609759964012198 23.642975373439799824 29.198942153016933077 29.515479842136763011 25.481735242941272901 23.81900108365904245 20.661084401053859239 15.447161019898107526 14.303743640501979328 17.394227294844405662 16.263672831942809438 22.321851004011652009 21.066170048609674126 13.906070382770888472 11.77990068993414674 11.143366183778821821 10.845211158455979827 11.212373448546445687 12.509570613792840632 14.715870557627496851 14.496003151991352809 15.565139304063105641 -999 -999 -999 100 100 100 100 100 100 100 100 100 100
-999 -999 -999 -999 -999 -999 -999 -999 -999 -999 -999 -999 -999 -999 -999 -999 -999 -999 -999 -999 -999 -999 -999 -999 -999 -999 -999 -999 -999 -999 -999 -999 -999 -999 -999 -999 -999 -999 -999 -999 -999 -999 -999 -999 -999 -999 7.4647713359947323042 7.4534820202928768751 10.106316513998654827 8.9438264191299108319 10.913912814173835741 9.2551609502191993784 10.667548186524019371 8.5419499647391372577 10.536051319340543841 9.6907704890142429832 7.8860883152774281513 8.9428437565894931538 10.113387560042562896 9.5519232500725124169 10.89237231163327202 10.059983365439027381 7.1388633945680650683 8.0471191571271205589 10.822965155615101196 11.785903799793748803 10.642497138096425502 8.2216374630613504593 9.8570832570904016734 8.0440397145757938091 10.189308490711090016 10.854781308692196262 8.3251182235517013908 9.235934994339812576 11.160038930718734207 9.0934126287157184265 10.497509195807237958 8.9814596459411433216 8.7195085234615614667 9.6087275077075897656 11.456805240169448012 9.3122708341341500216 9.3895840458124926187 12.711911725020939912 12.700161000814791379 10.05493913501741865 12.075662985646546943 10.509246083539965255 10.232621819777179439 10.434627015173482789 10.668592045072315955 15.916658851899228466 11.320047280885052743 15.554737190105283773 12.269128543609483017 11.212563977382711045 10.257025684487983241 10.111139509508493717 10.001314308893364924 12.029412020293680285 11.506935964606585188 14.087367971419906709 14.245384718685217607 11.856255056313367291 14.675952877234387017 15.67951582806477262 19.277650682086306944 12.616450112585241072 12.119741223487014992 12.108372154625062223 14.367672236615419479 17.187082378577859032 18.480575656296974074 12.704050083398781723 13.118680776037598079 16.800260020358795288 21.82763775533077677 18.236863676814305535 14.400878479418173228 12.908993393835274333 15.830369528004929691 16.269396983843030569 16.446951288578080863 13.172209654403467027 12.942444454144368393 12.867802243924700178 16.440000000000001279 15.436129107445887954 15.133211956134875464 14.187756181916970633 13.892324079430082406 19.769242887044196522 16.263226990536566063 14.706670602982100604 14.123935828600966857 14.758658265663987308 13.532840312318139553 13.417543169523575841 15.892867189261869143 16.87571791660173659 14.213035892980498076 14.464105262823419906 15.241058343174620049 19.891312929655942554 24.273767644449122827 26.791538450525408166 25.606811949351168778 28.590052075753000338 26.623600697319645292 28.658188399150073877 19.20598535400812068 27.386114983335762219 28.670628895796685498 23.81893658154254112 27.345078757460150598 30.051070598153607705 32.057125469099140957 30.582164273746982985 27.777235059683999197 27.149037020793322483 27.826582120456738068 22.158696042677338056 20.008138652396816326 16.794672815173992575 15.375637367652744913 16.831161312784551853 16.94455902278243542 14.860183378483636574 17.008667975515027848 12.786439689289363031 11.910039859983220012 11.199849763005790493 10.856656418790612051 11.071228064118756151 12.043824161561135 16.90030443408665306 14.122655833941371029 22.231390635778947029 15.071777203621577357 14.63322153608808307 -999 100 100 100 100 100 100 100 100 100 100 100
-999 -999 -999 -999 -999 -999 -999 -999 -999 -999 -999 -999 -999 -999 -999 -999 -999 -999 -999 -999 -999 -999 -999 -999 -999 -999 -999 -999 -999 -999 -999 -999 -999 -999 -999 -999 -999 -999 -999 -999 -999 -999 -999 -999 -999 7.8589285524689849183 8.62164048340742184 9.2091735610708749249 10.31955759850509402 8.0663778808747021998 8.4770998616100499135 8.1941826557657346797 10.16392449693277733 8.3672062370015343191 10.177893103858371759 10.282420809123189898 7.1165692677820446832 8.4526193002430218826 9.1019644628541129805 8.5185798084867023761 7.3398282477053289341 9.2285112417968147014 7.3612586151788814703 9.8867300179852346531 10.109240200128706277 8.8503025640509918048 7.7565400482233615165 7.8627930397747460844 7.8437395215876195564 8.2601435747369897911 8.3183774752674910502 8.7046593997160179867 8.0826985618288258451 9.8678087037543651405 10.482217369942963714 9.5648133732754061498 11.108449853706312993 8.7855877634054575509 8.8108214163029359156 10.62730435200674961 14.804518458921322122 10.232363175594352711 9.6376633417823480698 9.6776994582209017182 9.8418541714030247647 10.103278311397106748 12.690734462763948898 10.560093592874189028 13.249320563413578 10.43304574298176135 10.015504682694210459 12.401248422268887239 11.512216203398274672 10.207917084030738053 12.974450888909171198 10.363063130568139769 12.847891108653321623 13.257224744788072002 10.607730903011940882 12.409527333974873287 10.821370285487359908 13.707316450731481083 12.450378382131637167 11.997352187135115642 11.768790033224783897 14.454351580617094797 13.335051045492720689 11.787350010324427529 11.497375038029232996 12.764948164952929943 16.397334567619758161 17.301381864089705687 12.389893129243890968 16.257587126916376974 15.104012631209466022 12.447914343039210294 16.180282199668674536 20.774814740895116927 17.887787721966084575 12.807166751784947678 12.788407575815217143 13.838392604370236327 18.14560866751325463 15.069276692978265331 13.692492940997146533 12.838957230869789683 13.00227597818546954 13.472224664787923132 14.551912503675669797 15.888479010671495928 13.74645576437452732 16.364860746847373463 14.632158790309631513 17.060458869066170706 14.799871050289745256 15.413120880093845955 14.576085298694485104 13.324217960821957973 13.455662756504354505 15.762354565990170485 16.698851377946375862 14.551363049562329621 13.824666204719813223 14.121166379180650097 18.19075590158249156 19.654628618069626356 25.561178339073464372 27.419331242174870056 29.365470748258317712 29.801988657073426481 27.380353528073055003 19.704561887950319488 18.003735014140222148 19.442631107005812652 27.189839102287642447 27.935824567954419706 24.325096530268158546 26.367840484518641375 22.605502522921206321 18.848554428500619906 19.403728293253010406 16.896480129514575452 15.954379332832260729 16.899873216722532732 17.683830287212575882 19.772364312829395772 15.035631446454649662 17.993616062883457829 12.387845304970600324 11.797936956589813562 11.439380800270241068 10.90088968330153385 10.922913687885786871 11.761909878610516955 16.834102843331006483 13.670309555519811084 14.806617707354815749 20.694305065850976177 15.00475312599497002 14.466429813629831713 100 100 100 100 100 100 100 100 100 100 100 100
-999 -999 -999 -999 -999 -999 -999 -999 -999 -999 -999 -999 -999 -999 -999 -999 -999 -999 -999 -999 -999 -999 -999 -999 -999 -999 -999 -999 -999 -999 -999 -999 -999 -999 -999 -999 -999 -999 -999 -999 -999 -999 -999 -999 12.110213050796232892 8.4296026220909787696 10.393318877998144245 7.5610793117192107715 7.6244944333369160105 10.22292864605437579 10.094852670763556191 9.8489491885460900278 8.9554511649968571163 8.6932311482612281139 8.0794382452486921409 15.288620067067320463 7.7584494829986434539 8.9618387001017474347 7.8194182691042870559 8.7145116615723452469 8.800476011366157536 8.35163757693891462 9.3052219215375622241 8.5438365068219095377 8.7652641247016394033 9.3710170002024302249 7.5584714108050192749 9.7830865648130078682 10.317979918483221269 8.4785314943499301421 9.342226156705963902 11.117416449326455563 8.7121951713837511022 9.7586664736649826324 9.1599170150528195222 12.05464634115803868 10.989270777472071927 9.2250654515135739331 8.9702050275961848769 9.7950938233010464984 14.497101978241545339 9.9940023533048183424 9.9037070865712788503 9.5740427710311486464 9.7044681788104121267 12.351439883725637614 11.648511933335912616 13.414466338371976661 10.343435096965881925 9.9415563368434316516 13.262126588456592202 13.390780381433909696 11.86768800792481926 10.457539359986144589 12.312976296990187919 10.422577263190625274 12.275792556049919924 12.971485006921421146 10.30518332897550593 10.705997731428523068 10.730264292589483333 13.303381046753724348 14.948419171249954118 13.813720464259962029 12.57695651072430465 14.495395949718634654 11.764678050196025083 13.42870252697260014 13.19526057236979355 14.375711201150238594 11.938015373430969746 11.912977690905428574 16.34103546768881543 18.437745041717370498 13.55859852401447796 12.974996930941934181 17.831631131406837198 14.914184950447760158 19.611577340267974279 13.292505388285743351 13.011194887601579495 14.353760272278062615 13.633462215192936995 18.3765940112697308 13.857894871574130136 13.030832691615254149 12.850649445481742816 13.086155759138613064 13.562171037362077186 14.695930340584022034 13.990035854069356347 14.572971579746555548 13.834804460412158278 15.391565645603810353 17.176982318717332276 16.561974308160067437 15.297440787920418614 14.21721557833431504 13.234736840680275449 13.651078264873419243 16.190363629209826968 14.629162933932491342 13.380722917295436503 13.472512648386389955 14.162907633438670985 16.163227715723508027 23.398211767786875726 28.535040341717127887 28.527865180342242724 29.070401811973564321 27.399314182680285512 21.164083529648230808 25.643539648079006099 19.081151106025032504 23.075988523717910539 24.990518787979162596 19.113392873597359056 16.488784356156280353 15.561079945446227413 14.63602441502211704 16.486464263191450641 14.310081111687910749 15.190277982444781557 16.005443489053977402 18.060689910179526407 23.305678897877420752 15.316015733822634814 19.530996537598980467 12.278745301884418595 11.470562000916698864 10.904692171472575524 10.904906990037218861 11.510254125972851469 13.688127478114960667 13.606779221670013413 14.601465049681426223 15.722106846149859649 15.426465322398298596 14.393788414331467607 100 100 100 100 100 100 100 100 100 100 100 100 100
-999 -999 -999 -999 -999 -999 -999 -999 -999 -999 -999 -999 -999 -999 -999 -999 -999 -999 -999 -999 -999 -999 -999 -999 -999 -999 -999 -999 -999 -999 -999 -999 -999 -999 -999 -999 -999 -999 -999 -999 -999 -999 -999 15.686172649446312732 12.446573657673564384 11.404428633143208316 7.8774622208007674118 11.260939243564664025 7.7785943057901993924 7.6971330630915213433 7.7064260620096991516 11.257396092324562176 9.9920867125926289276 8.2728814054317520998 8.0274902471465860998 9.7782326294341288531 11.802622758439047956 10.866593716452795704 10.245112107584921191 9.4522395719439966655 19.962358867497854931 16.448937586754418305 15.228378116940874065 13.680340662538448271 15.615628540425184667 11.982126806130770191 8.0687695498397786764 10.217758470189494346 10.179648219883741689 10.296821825373104531 8.4497147387358193527 8.1386738612276730009 10.269883832160772386 11.508298299590643765 9.2336609373941715972 10.086262194737589226 16.924213315360486121 9.6894553669350056424 9.2608424785307796867 10.47716961581319417 13.633546474059146547 9.9026266492242367434 10.286139870028190302 10.413937282452572219 9.8850001556370621358 10.802476039900234639 14.472116009908901901 11.862553470119124199 10.840437829731392583 13.250499695643377152 13.393441331140198969 14.990304331316362862 14.710589008220068763 10.979065972808985663 12.150311722167280948 10.455654189836458556 12.088078427954489058 12.91294319667085766 10.442758115507807304 12.38902105507171747 12.445436524824179614 13.874181600853043861 12.531684149982480037 13.749406098086838668 12.474458860569857421 13.52373863542479171 11.862212056849001485 13.991580543598214348 11.893560659122449863 11.943180671551150596 11.482887560964607943 11.904050613591671492 15.001617622759599868 15.930196948575222393 15.626297082973465535 13.069726146824301338 13.16072918246509893 13.705754874466459015 17.567028417851286548 19.294866535933920204 16.598803771840593413 13.30816284317895537 15.068293327402484394 14.144837941338833431 17.583388528348464774 15.494714688668132396 13.170968690196870554 12.836331920322336941 12.756346479333997124 13.543153076649993238 13.69342039488427254 15.834228519487515641 13.810672457011321512 15.16466962884273606 20.140165761686045443 14.602020864551565893 16.725653481234701303 15.714226038202667723 13.4782962606190857 13.127708173435918226 15.342285234523734161 13.341019705415300578 13.173376668304170423 15.237982014395212715 14.151429717223711791 16.938595758135662095 15.411480860645168534 26.064578085917510464 28.873221173912725135 30.130019648419491318 29.424305895455482585 29.677490454991243496 27.963391188162766809 26.266314842104176108 26.453106163419832342 20.708259778709567911 20.070457032599229308 15.531233221101857112 14.688437366686112995 14.939012327148832426 15.665818813700523648 14.926697702414617908 16.36883165665481954 14.310070254953366486 20.527500406773025787 21.919872656970792235 13.2370566595931205 11.511770968800254522 11.354802612033697784 10.694887908588160741 10.813415776494897713 11.130808990468596065 13.423931152459369187 13.425298580313027585 14.880552069327288578 24.216789948027997781 15.252137949124815464 14.349241266078138324 100 100 100 100 100 100 100 100 100 100 100 100 100 100
-999 -999 -999 -999 -999 -999 -999 -999 -999 -999 -999 -999 -999 -999 -999 -999 -999 -999 -999 -999 -999 -999 -999 -999 -999 -999 -999 -999 -999 -999 -999 -999 -999 -999 -999 -999 -999 -999 -999 -999 -999 -999 15.097228257261587459 13.311179348331789285 8.7144832378190848488 9.2930710810443564185 7.5199160568732610344 10.475626410918675191 9.8973606984436912626 9.6275135046028292862 10.327565959484257263 9.8779422253057411751 7.8255797660950863204 7.739740920571587246 7.7511996396373721296 8.1021485427115962352 8.6461268353849050072 10.424449119398298436 9.9350975837700907789 11.333087875681540524 13.432431631152198293 12.424443472805377198 12.683570761812655192 14.598334947152446617 9.1148449081255158433 12.980658072647981882 13.849009144007347061 12.894377990252820609 9.9730863943642269476 12.982797693873413536 9.7696023199452692864 9.912836079653132515 8.7379793038500448432 14.364395050890907513 9.6860976926168920187 11.445553434175200991 10.801187682963920622 9.5171392118567759155 9.5674486197599204473 9.6710708301073218252 9.6746829501972442245 9.9556130112174692215 10.416427279249656834 13.141527237776733372 10.878690282870223882 13.739938313694818106 11.242169842025424131 12.631518900480916301 11.454936286021172975 11.260962831519462313 11.792889676603035554 12.754198826664977062 11.662089615277468013 11.451420787336978435 13.976757457729034329 10.459064298725872177 10.501781165972877474 14.027159407864406404 11.328297838571486977 13.088232328153592832 14.243361221043365106 12.232745538558191356 12.467040711031382116 11.849088759859384368 12.805752741985797272 11.384362246812852248 13.11345477136915072 11.747407876154454698 13.581696881386159603 11.274060869717677846 11.980018243219952012 11.844201232560784831 15.296259990114862148 12.908604789334503948 16.405426257659645017 16.043394090389181628 15.077561428301107682 16.351615574764302607 14.046484999330576926 13.979033406763106129 17.430197213775588949 13.519290289947372585 18.850334750390231875 14.716668284059094773 14.058109986283636061 15.883601816849326482 14.85963884156815773 13.069480841937089366 12.850394419145901637 13.93116880664732804 14.202333759673077651 13.735334344865805178 16.404351500363777205 13.55152040625377019 14.141843927067759168 15.795187701111174761 13.728342850300728983 15.311705245586196611 16.763957108732913781 13.448726710518922545 12.968107232615000868 13.083847518784265773 14.046081858605338866 18.079506123954317331 16.750180611035016653 16.551720802530862642 15.078421769950642428 23.650373770642495685 28.628226786967946538 29.634006329408702385 29.636118177536214802 27.431683837078558952 24.926446600728823455 22.725276187850646181 14.557863819771009517 16.380954547362215123 15.587185197862304165 15.296590756060023608 14.446157436075189651 14.615817750744854564 14.903029034101979988 14.352618717899444434 13.962877877109150404 13.927466804325860039 14.907862534515627928 17.428507187368879272 11.432342522679437735 11.147537487273048384 10.842705826161484595 10.735943643547301463 11.001287145170968174 13.105470582408901947 13.284098352171405111 14.058464187089736441 17.340915462475710029 20.769466066520294589 14.341656914158596337 100 100 100 100 100 100 100 100 100 100 100 100 100 100 100
-999 -999 -999 -999 -999 -999 -999 -999 -999 -999 -999 -999 -999 -999 -999 -999 -999 -999 -999 -999 -999 -999 -999 -999 -999 -999 -999 -999 -999 -999 -999 -999 -999 -999 -999 -999 -999 -999 -999 -999 -999 12.524234389441199156 12.888721095148024887 13.605942842141500293 8.7133055541246946518 12.001249208499107368 8.061532353096122705 12.193724386016720374 10.373287218317676306 9.814827505197680324 7.9027854856740180622 10.259551700158413112 7.7813206835678876416 8.0904230403012160622 9.2116003832163766418 8.0711512490903967176 7.9337811721410105292 9.1415167185639631953 10.353632315711697842 10.233769816734129776 8.6185057665912356839 9.9022563533873686481 11.918960358256475374 12.547583375915110082 12.560274942766699979 10.708053115669512678 12.827587414679662459 9.8904686713588940705 9.1439225057261239726 10.462138789746729728 8.0408141435630593463 8.3764025156885359991 11.420023949298721888 10.616101559162983037 14.133336114233932435 12.714368143977376135 11.49069047516037223 11.288841492437233782 9.4064888374622395162 9.8161061072066733146 11.451354915575652882 10.447058758933426503 14.513557829197345939 11.85615706457938856 10.531032643562781459 10.194628658188614523 12.315188346012728715 11.271284172329995243 10.40468580543871191 10.848028765325171463 10.382466983414575523 10.822100843623127631 11.745380427600711215 13.607777153507583989 11.576190599783215518 14.130251439136237934 12.653738138964381932 13.201971420858571449 11.290755249625997081 10.822684822203139987 12.251831060283127073 12.679249151736286194 13.524326035647289856 11.199318008175151107 11.996167970482870757 11.529463153097108119 11.473699234701307148 12.953593352536769245 11.076776934917932138 10.003932464128258317 11.270248865496597546 12.557492434792496994 16.544708469629426872 12.620809113287883463 12.616719728219766949 13.720377062696512027 13.58915885954450431 13.655467214845904422 15.45503062302644004 13.915849697448095412 13.506870098098410438 15.388671358512974408 16.79930498992266763 15.558661846854738187 15.090416579940074016 14.365341931150435784 16.846123221680649351 14.646763846786639007 15.458347883684629309 12.858802617225613574 13.127405450494061157 13.600752694212932425 15.914424396304362119 13.562688212831240264 16.782203811049068776 13.682020421091566575 14.007584436669469952 16.175497666404506703 15.818704095598775439 13.635387460640092883 13.105593914878202355 13.281891688173667276 14.549322595210540499 14.143692100636304332 17.256906197072456877 16.505870800978495794 17.275921029662068662 23.498239141417521125 22.412211409982386812 26.429380815897978607 22.919495618307188067 18.793185277835213753 17.675751171927284844 15.027809481090178778 15.034070625490219442 15.85844943028290821 15.592225235771225655 14.405178710476073789 14.874123307422355111 14.367523254316290959 15.198840941804771631 13.918258981666168594 13.971219764785852036 13.843836896020315308 17.849497702786905506 14.781572161317514613 11.12977008060502726 10.804591083650100458 10.643711016260729352 10.959622002896297843 12.621044988379010121 13.358088464240456261 14.067990685300078013 17.537042657623846509 14.251607587324084392 13.846844555671410149 100 100 100 100 100 100 100 100 100 100 100 100 100 100 100 100
-999 -999 -999 -999 -999 -999 -999 -999 -999 -999 -999 -999 -999 -999 -999 -999 -999 -999 -999 -999 -999 -999 -999 -999 -999 -999 -999 -999 -999 -999 -999 -999 -999 -999 -999 -999 -999 -999 -999 -999 6.8378936472471867347 7.822365050607494652 9.8109130086831299877 8.4728945270690942948 10.617645731304289569 13.468663878217160601 14.980770347342472704 13.988851147318767332 7.9650525337399891157 7.3913031528950705606 7.976211480296071521 11.295248727705287095 9.31312185818254612 11.157997995171012207 10.789171016148037197 8.9966573271666288036 10.286743560787156682 14.811197741664708261 9.9946920380447181742 10.5783844362328594 10.361648749060842434 9.7501594191922347221 10.630693540203468572 12.382025002399201341 15.273323400827161223 14.138108097426671961 12.021073421585848351 10.585114705249491607 10.611506117658530357 11.490065033663553251 9.7571706219164102691 9.2085090717564686003 9.7787632755559634745 9.5608657119373692268 9.5385047764947703541 10.133358195844380134 11.587800064319166538 11.532495143439687624 9.5457496724572514779 9.9554734090200991403 14.635019992602876115 11.728433499089282677 11.791795903224441489 10.451342284441171415 10.345432666223713269 10.694958791746044469 13.609554850131955206 11.910203464357243419 12.504977263846699387 11.076397120414064545 10.685407885617127732 15.252378639023868701 10.886070595952283213 14.566965090791832438 11.686382552641191523 14.418421083319474363 11.707802297965105964 11.42744932265308222 11.959588691585278042 10.299032266954426973 10.752806666973725669 14.170590308673288504 17.091926010292567639 14.774032805528531043 13.205319794602747407 12.082852057043311333 12.881887508131345754 10.851584579801427211 9.9557840975524740657 10.578032880078241718 11.350663944555131835 12.103608441615556046 12.405334562980966595 12.399490081223895288 12.407950726919100504 12.618453106481819503 14.418883406929470681 13.730208487578847709 13.398509221343219977 16.139928533873018068 16.590095922705696552 13.928439958664103671 13.516604175053826609 16.210366893217265982 14.024530887282319114 15.434136846686389077 13.160341289605709036 14.99379497420254026 14.986885970578132543 13.681609836594553542 12.932276181610832921 12.617998842825089767 13.135364292028505417 16.947136730129830795 14.145374690217897395 15.818883208465392087 14.582273973968982617 16.7916970587472143 19.351314336259072491 13.168968762179916965 16.05755011271088506 13.499427682668731165 17.822818288205667159 15.467466508446351625 18.860268120460233376 17.25344117403767541 18.001127911819459371 23.079287394592544302 21.243043042095301587 19.715726950299703901 16.60927404489341086 14.687593760862108994 15.510162101795446077 15.895976022028815322 15.429887788973974949 16.705039288835060063 14.838538912375298651 14.49737788413392181 14.51328667352409596 15.091455544195131466 13.872436305709353377 14.012782233351412486 13.984381518707746039 16.55834919878865108 14.975184038043966694 11.158736043054485521 10.709164852093033815 10.599677407584858102 10.952135706971567686 12.901852389977436886 13.407322593053535797 13.830932984349166404 14.954361351655977685 21.68223624057416643 13.784244376441741053 100 100 100 100 100 100 100 100 100 100 100 100 100 100 100 100 100
-999 -999 -999 -999 -999 -999 -999 -999 -999 -999 -999 -999 -999 -999 -999 -999 -999 -999 -999 -999 -999 -999 -999 -999 -999 -999 -999 -999 -999 -999 -999 -999 -999 -999 -999 -999 -999 -999 -999 9.432359135435111952 8.8889422541226554841 7.8330047148963606318 9.0410181938849838446 13.834657646956715737 14.603843200539417424 15.616151921635980315 8.3616443947452037122 8.7553037324852667211 7.5782275368227400847 7.2846835904152760222 8.4226693147463880251 10.020502164448206628 13.492024107299245728 13.870122029105358408 9.4556976100106862049 11.24923637057328385 14.207377278629765627 13.276845059151426653 7.1750707081193940695 7.3232901728785879669 6.8420278036159203339 6.75226090463119899 6.9173115933822675316 7.0592319784737833643 8.0373049666738403118 10.335559621435599809 14.692269634688258861 11.191668684367062525 10.695988168468876012 11.339765952199972077 11.793982741979929685 11.635992339092695147 11.18452777970732015 12.629120198539137476 9.7673003081870621855 10.882345113988568741 13.014523180211437392 9.9557060216279111842 9.4758125387127112305 9.6133498496876885753 11.892746338615889812 15.963601967852277141 12.746558238731987345 12.848898059516898229 10.805571060249466342 13.154220660083968397 9.9661256111444895822 11.157895480820238632 13.254890348063485206 10.444245673268403252 10.995474920077821679 11.732491349132407876 10.660742087938913869 11.287597942096653014 10.983547382642409929 13.270041475969158284 13.994322288828282552 11.000340881497173484 11.564025496646527458 10.738259356363366592 10.671021044306005621 12.400655390756513796 18.168806475336790385 20.148127961915601958 12.483312733932349303 18.405452041737873969 11.035346782491100015 9.8290829925969784853 10.759681728727214178 11.155799759723791453 12.814535421652500702 13.674857459705613394 11.940241532342858122 11.765082975642018326 12.085434121227583759 12.319378124553560738 12.556493338249049785 15.919743355584529354 15.603630962286738182 15.625321179227798396 14.884463005491323173 12.483391148270275295 13.005261884446589704 14.927295527514424123 13.0503711122389916 14.294505518506960939 15.8542537062999358 15.744339107970313663 16.972935632907557135 22.745514803567893125 15.149325533872454841 14.548952177172871814 12.425892212786731506 14.068380012975936211 15.962266285811322675 16.065101822526667519 12.862753866179101436 12.475358229162228696 12.551949309104784902 14.606544588363295389 15.414680554271702917 14.177396768035652741 14.82059509680115994 16.560431071098037137 15.247698559539086816 16.176627475914681753 19.776278987816343857 14.648429253838616049 14.174848363288667485 14.356396430864689862 17.059762064732446163 15.764121097429059759 16.144481050402969657 16.335362349276383753 15.446850052372305129 16.336789668323149272 15.723394780674809112 15.132445713150108446 14.687430756194677528 13.754811184216141129 14.713211812560199832 14.379228665059866188 22.083302463850071007 12.603220687430555458 11.199756426174701573 10.685504818671574867 10.461491489510780895 10.92134809405795437 13.617672420077925111 13.789269588022252222 13.982887400092087304 14.37879635798686806 15.194983675530547629 14.414051479272309564 100 100 100 100 100 100 100 100 100 100 100 100 100 100 100 100 100 100
-999 -999 -999 -999 -999 -999 -999 -999 -999 -999 -999 -999 -999 -999 -999 -999 -999 -999 -999 -999 -999 -999 -999 -999 -999 -999 -999 -999 -999 -999 -999 -999 -999 -999 -999 -999 -999 -999 14.176498062170946213 14.270940089767750081 14.437549876179694763 13.616431121666350279 13.669894462472212737 11.878683031611641852 11.752316526678123765 8.767807790232085452 8.4182637204885129023 8.2121531400994918215 7.3415406116033459227 7.9981817502493042227 9.857054519234131007 10.81655600135596984 13.704054549670408036 8.3951482019976371163 8.5175997247614336771 10.807344068703821804 11.843824040028618327 9.8459948519785598364 9.8249375069812021621 9.7966034413264821978 8.2205284139192578152 7.2828477091368188923 9.6957955962614139622 12.962711830358284004 7.9878241118254438291 6.4379723774030015448 7.1377635028718495747 9.7721430822437032049 13.298291956956163062 10.322987015501460917 9.4120609675236721614 14.385794469310903665 9.874425100200548755 9.7215828747886305905 11.894883572735723831 9.6554077528756003801 13.06060710426730509 10.390944118257717577 10.287864215348731634 12.316077274369387595 9.8508955891209115663 11.371823096956470422 12.113022760276882295 11.396507920324930652 10.467614977452997849 10.481164649413130974 16.619011149872655153 11.940611416506067499 12.82534921390810112 10.861241463106873439 10.272812561897778139 10.971988193949451684 10.79964800647378631 11.509449591028349857 11.264178268947384609 11.237107247312644986 11.504250224947263348 11.150040640833577044 15.035146406930373075 13.000653963399246393 13.961442096434637961 14.622629278690121524 12.812333513721076983 18.247441668257561531 20.84908443376146181 14.26206678289980978 11.231539781499638053 11.842730537654970746 11.301244216788790098 11.795808347948032235 11.734861329390078311 13.217315102717050124 14.816817112720229943 11.54383477983001427 11.519930600289587375 11.615031155310276745 11.915104139912585879 12.321555864780119549 12.424761775373426076 12.83253515256028976 12.404677711442808175 12.626296885957097871 12.312514588229740653 12.686246192201609873 15.801845667196209533 13.77649783348784851 15.361269297241491927 13.855077850168003195 15.315082758066589363 15.520884283836819506 14.350756758983118644 16.31894702588985524 12.597303090638337864 12.58524369786621655 13.346256762978608634 12.879373986252369733 12.180659187274267552 12.219665970584946635 14.632464346674607825 15.88393563546594045 18.856421097506650852 15.307398119126451874 18.206299048528816087 14.940075722388087343 18.156277084001370525 26.839847413209454885 18.741898589900205963 13.826584914655137837 19.341176691124886133 22.924048741905419746 23.284047398873124024 13.860894998549738943 13.556617793872794309 16.898492574462810722 13.450547138543742065 13.632339832938773938 13.364326783929190157 13.327795649556270163 13.275975243888035848 13.854709532306644704 14.677210935787485369 20.038425393763819926 15.842246302935366842 12.030620350506936234 10.692191799447748224 10.888846965556609803 11.479493323694757834 13.298914050308077606 14.014011314509092543 14.023004003304539111 14.754658598855176166 20.348187518721541522 13.780609932655766059 100 100 100 100 100 100 100 100 100 100 100 100 100 100 100 100 100 100 100
-999 -999 -999 -999 -999 -999 -999 -999 -999 -999 -999 -999 -999 -999 -999 -999 -999 -999 -999 -999 -999 -999 -999 -999 -999 -999 -999 -999 -999 -999 -999 -999 -999 -999 -999 -999 -999 14.193221334078097939 10.314346430630559226 7.2140300341723255784 7.3116679745149539826 8.4647848374620462408 10.610515061712312956 9.1987938873512948845 8.8448433788449900561 9.6452516410308994921 11.778438817868227773 7.8161469986801499488 8.151874731121028006 8.4592179245994323367 8.6055062131479225229 10.072261072105256119 8.0251974821506912861 8.4950904985263715474 15.482350893901831057 8.4167563553654396458 9.8664871436393735138 11.645683839061211629 14.765870274962672681 10.925641135492739409 16.934058190365384178 8.8910471290130015376 11.807897798969962722 12.690761863730443793 10.785328743662406126 6.943542383257135242 6.6209651133546385537 8.4081953783678997638 8.2322189279226023473 14.224187331758409769 10.13996701645603693 9.6566402197040090982 10.359558146777265719 9.1998434590891857709 12.064321918903132769 9.822583558979243179 10.050261611139681861 12.18354540891552773 11.467496501350620264 14.003969129443305519 9.9085962079890403942 9.8628220170542792999 14.119869718907873235 14.541741194891818267 12.534057455854130225 10.433738979829239923 10.284572082425029294 10.665825775262083752 10.533937450085229415 11.505595020592162214 13.253536132537981018 13.158764465398615329 12.871550295028804101 16.861735717869027695 12.359218932886266273 12.642656989455915095 12.242543354321091087 14.22695660555641517 10.968854404674832637 11.698510524692594004 13.912332707811311039 11.469986202559301347 13.263551053818595449 19.08586325090967506 13.433568385759292241 11.704506448508457339 15.107042459423821512 11.119520837213858755 13.859598725174675948 13.67853241247790308 11.743521009180811987 14.013778413823976265 13.301803979428919789 15.09606898658834595 11.416132630168480233 11.468965283097448449 11.727878272301520468 12.019247017954395318 11.940005076005641982 12.380637313743919847 13.498507850262836172 12.394765515328316496 12.459990021347714162 12.605340856464870569 13.568338231897859814 13.10051769352251938 13.86514550134830337 13.358073547743972043 15.159207692948401203 21.861915326986309793 16.414686696719641645 18.351179429122677078 14.369134156197413077 12.159485569699356233 12.078382865868800167 12.071088224213800899 11.948929037885022808 13.179727839478188045 17.009401180352131888 14.971897234078811678 15.056022185104142252 17.836262642948966572 16.467677220366987001 15.803343806371515257 14.236360956152045887 28.167114355639771617 13.858274470243907572 13.562803176834128394 14.278800455490271659 19.3284749474196893 18.452513266316163509 18.32027174771839384 12.802257879430465337 12.844642765625154723 12.950360142724667512 13.040976791474195196 13.022493482182314395 13.119988414545426636 13.383591361555819077 13.141295152275707991 20.960054679987432991 12.86674678724983778 10.775138889054307612 10.779206121571004218 11.335565448511321307 20.255913217551263728 22.666722577634082825 14.647445558153012968 18.536277421263463339 15.799664439837423302 13.92785058779469054 13.718808912891843121 100 100 100 100 100 100 100 100 100 100 100 100 100 100 100 100 100 100 100 100
-999 -999 -999 -999 -999 -999 -999 -999 -999 -999 -999 -999 -999 -999 -999 -999 -999 -999 -999 -999 -999 -999 -999 -999 -999 -999 -999 -999 -999 -999 -999 -999 -999 -999 -999 -999 7.8040322387948197758 13.427467873641631968 12.584495366888182488 9.0155727388823780899 6.7712036979659879776 6.9057416277284868755 7.0617026770382320677 7.1932436980065412868 7.5312489085376750353 8.8230848172899740689 8.4061899728673719068 11.371583609874392096 8.954623542676053205 10.661938547996522075 12.29614076483909102 10.12492357386580899 8.7436705247374355565 11.044217125116427169 6.9897519445043796438 5.7770336740991057312 14.358919179860762938 13.176275256120925761 18.20083168715909494 18.971922283039752699 17.399894471326241785 12.001622020161970994 12.149549212590397218 13.715570397509583955 12.912808235084225927 11.357913738564135997 7.6455892977937427446 9.4470755808501500894 6.7789691790615043132 6.9101622414601360234 7.5626439711172777081 7.0565603117587363258 9.6524349030760898671 9.1755226089555783631 9.475977872484016018 11.63471442229601216 9.5482456052624229415 9.3529158656470983146 10.291380954617102006 10.461930997689869116 11.785570312664328085 9.5278580818340135039 9.5086146261475690267 10.587299922880577085 13.077650145589608144 11.043677176482932012 12.131951712485850692 13.936466654116751229 11.208233437528067 11.00494908176569453 10.22017567557190354 10.896555134832331291 10.484151981849175073 11.575281916811562155 10.732951949765469735 11.100368541297537917 12.801731710034422562 13.87575893231501567 11.440235294398481969 11.238304487913342911 11.225119320109557819 11.625776539633347895 12.103185015538622693 14.316887325360521999 11.833793247046122232 11.585038753103642506 11.376887827862613989 11.158330491891479852 13.082492857715873669 11.628555862010424349 14.115922670580529186 11.22014197840246652 12.564028200394517398 13.436877475109881175 11.986515031536006504 11.834916094480048443 15.59515213712030679 11.549294700910788691 11.849201024850309238 12.070515987886938802 13.395655654473179297 12.444623999376055679 12.594820062925817794 12.531721613848418428 12.518885541189685995 12.574251744935942554 14.178021725441096734 13.54901173827889771 12.987915996586629319 15.388425790853979436 14.613407313756567873 13.693515072120694853 14.499081067995273742 12.385733093842771879 12.491244203394270329 15.658211840521042646 13.688305912543338394 16.616911402403644615 15.23965701758482183 15.256878217427789934 20.343718539115748456 12.564022910459081928 14.424776439931770611 13.299794661795953488 19.253389317944296977 17.871538703968390394 17.184474313554620295 15.114264856944334525 17.603576092114153084 20.196099918567139042 20.27442897675113187 22.940435494835284658 13.210937199032349199 12.741249282715459756 12.843889849889730925 12.936907835998642469 13.106490259816071742 13.376328336730152202 13.177921860374588903 15.810477489552626551 12.788958252914587987 11.698122704534595684 10.659458312846108896 14.689509120310910717 21.268871533953962683 15.423833884183647314 21.116459604846781417 20.088266436270480142 15.76661321263330251 13.81753781027149941 13.548172082510296477 100 100 100 100 100 100 100 100 100 100 100 100 100 100 100 100 100 100 100 100 100
-999 -999 -999 -999 -999 -999 -999 -999 -999 -999 -999 -999 -999 -999 -999 -999 -999 -999 -999 -999 -999 -999 -999 -999 -999 -999 -999 -999 -999 -999 -999 -999 -999 -999 -999 7.5220041285560421684 10.306593153987421374 13.471055648965831963 13.372557678635867973 7.0665660483326684371 6.5396398266456783333 6.71987748543064356 6.8325015573632299493 7.1695530019010833556 7.4185124528547863321 9.0876322085709144716 7.7924370127984552425 7.6320346838051795757 8.2051989246475969253 10.491919697865700556 8.6163496342833632013 9.3319889517841847493 13.7641815196296875 16.372546401636629554 5.9887969943795393846 7.1134094843344772841 10.888063987869779581 14.20130557308039343 17.014847308461654052 18.518714219670108889 15.221301760133389536 13.232744328547639157 8.2971446960873631582 12.00826973848972834 12.00263079499987029 10.286459094868623865 7.1160486373994054077 6.7758911863922381968 6.885652802943041273 6.8123799429076257184 6.9983621927370780469 6.5167402663211948521 6.7944498489534481678 8.6378552751059700654 13.514796493984906789 10.169739397965564365 11.180240596450806478 12.136458914240506601 12.860444014431857696 10.780464588147026461 10.179265726060451769 9.9198533407657887295 9.3238513678793175643 10.43810595862272983 11.228451572323004726 11.046733031128059821 10.641620262008224529 10.399264085665773649 10.537199237281738462 10.800133983333083165 10.750940779891275056 11.526844843910851068 10.671603715820559444 11.301503028962651243 10.960543272476968468 11.304752738810138979 12.077407007032459063 12.052557811626451567 11.410132147290115157 10.902574219986712833 10.79436948691170528 10.591650637066933882 10.943981478831172893 11.271211736865012654 13.998004774021037377 13.388409205611571551 11.33590654209838533 11.151678329253288169 14.135369108170653618 13.753844145175454727 13.023343651872224314 14.533029352621163355 12.302556349867538543 11.375830752281276048 13.676804262569772774 15.121752244263873877 11.565919656037275232 11.499639289878437864 11.750018745435339085 12.10515614267971074 12.405653371153253062 12.784137672507158712 13.335741020746818108 12.398510851403534261 12.25238121411210912 12.256625689831963655 12.665473933105813487 13.783486659757507198 13.142082380800088615 17.243774937411117776 16.835343518014472153 11.824132107257064206 12.475795216827300749 20.730999322477593694 12.522376094755207632 15.062830515840191836 15.470622194613273592 14.503913530436257417 15.395117042431925469 22.549990174484442207 24.972798311659079928 24.722652832625453101 21.730416320175013567 15.741513986421159288 17.061426547589761071 18.125838853172094645 16.420744269829562256 15.314565606092763517 12.722796666715028735 12.65995874202062943 18.732404174468591407 20.825211196334976194 13.549381477676977426 12.834591224465748738 12.845943946570153926 13.01943224091839113 12.883605437264098015 14.205647671945364152 16.76819031892452827 11.256992492291470143 10.811960586083621649 11.442286674781149358 18.172981562478959461 21.648825877695109909 19.117789565693982468 14.850976587020829456 14.045988437297875606 13.914629527141912035 13.881801318073284435 13.416725505611161395 100 100 100 100 100 100 100 100 100 100 100 100 100 100 100 100 100 100 100 100 100 100
-999 -999 -999 -999 -999 -999 -999 -999 -999 -999 -999 -999 -999 -999 -999 -999 -999 -999 -999 -999 -999 -999 -999 -999 -999 -999 -999 -999 -999 -999 -999 -999 -999 -999 12.661137297736232199 15.237104926128854032 14.751065809194171763 13.395429260404162264 10.704080724743791464 6.6876940493495951046 6.6112462305961816611 6.6760982954947483137 6.695214750756917077 6.8060464327062790701 13.311835540896995056 7.7486498644293098081 7.306574735523996722 7.4918919561158743292 8.5776480161143595637 8.5231077622166875329 10.465044818835757212 15.59774613834585999 13.601558067645157735 7.3116400781928048147 7.692198838361751001 7.4497357892986100225 15.984119523804046992 14.698148108029229775 17.146648312807975856 9.1025282739090336293 6.4020667413536145318 6.5187373571822568863 6.6111931535530272797 7.1740945968267268995 7.1911390139950777112 7.5140909776866786629 7.4482908669574658944 6.7886800231953641216 6.8362101427035755208 7.032656091792481412 7.0442026910616721835 6.7252494488905441017 6.6623527992058422242 6.7140871797072456673 8.4644267095276806145 10.196198751832250551 9.5385254995040700265 11.496725007690789866 9.9447085799443240006 12.278527174230241314 11.811091971409929613 10.004412944883375403 9.2177353664790580012 9.4917083773819417303 10.839403990866074423 11.687415203785809226 13.479323303012565205 12.643823927664048057 12.995970872574739374 10.944396564063284316 13.40810883063175396 12.834845706147007149 13.948560224226687509 11.343572149867394927 14.257144017853201845 11.570176918391295473 10.86956262007539209 13.043146504397238772 12.840576671181484159 11.291007643276557815 11.947273010382591707 12.143267440254719602 10.969408270527468474 11.232406697987871169 12.11853032436839861 11.329928361000620285 11.236635630388251528 11.506964949517055175 11.27570695730489625 10.967607943413574034 10.667439904688743368 15.273920937941101172 14.213318791198876312 14.253271841727894298 11.857757612994856089 11.242136895162673227 11.465428186661815957 11.583212484134525866 11.757306668924961457 12.061487081586802717 12.054819182054593796 12.191906375502808757 12.411164774766643148 12.195306368407681674 12.135419487544551131 12.094228829198501174 12.065995924814382434 12.231898294339210054 15.446131278697624367 17.218979179751595865 17.597512335300514508 12.278379829751489893 12.47817475185402003 16.583468816826350434 15.791592042493624248 15.416694709259472162 13.376188164537596847 15.274130154937719084 18.800562825651638832 23.79805949972225676 25.996442084815289064 25.14570284287780666 20.660640633723808435 17.027372120930152732 13.324702132437506563 13.657092410568967722 17.170051635630951381 16.433715251731161544 14.11229860016492843 13.400888458685777493 12.950076702445295851 12.890597776516028006 12.575562128601713852 12.633646212239945328 12.652700801283835119 12.535813039924065038 15.643373620742897501 12.300490176819955934 10.506742631911112795 10.185878001444333307 10.187555393450372421 13.497890403004404902 21.361072251052032556 18.025083709409468469 13.999184938746315865 13.846677984105356884 13.651413904723124659 13.525039041306321508 13.557173943347864409 100 100 100 100 100 100 100 100 100 100 100 100 100 100 100 100 100 100 100 100 100 100 100
-999 -999 -999 -999 -999 -999 -999 -999 -999 -999 -999 -999 -999 -999 -999 -999 -999 -999 -999 -999 -999 -999 -999 -999 -999 -999 -999 -999 -999 -999 -999 -999 -999 6.7427513674352796968 11.325519121244905563 14.434133358370917932 8.5885369998262781621 13.544243473385558119 8.0811998236994035949 6.6340207800145893913 6.5895086393149204795 6.6314830821280610351 6.6769183483268825796 7.2255717259412213238 14.341128219223694629 7.965990974992428697 7.3478211836193221274 7.5263969453459873549 8.0018524901977059471 9.7393750066812163624 15.029591676672406919 14.943863472113694257 9.3815547670282644077 5.9614337585588348389 5.7685824154757492366 5.7258947275552172229 6.9295502997487670171 6.6391777529095810095 6.6761403493875706161 6.3831695626428306412 5.9922363871573463001 6.0232211422992083527 6.1144654734545618169 6.2369176139919959567 6.2835221099609679385 7.4590522804817789293 8.0846741132856223544 7.3426581839447306876 8.7717315669842701453 7.9149683940369595092 8.0320030432106488405 7.8314734625944550928 6.8948977742695296556 6.7383176020524455652 7.0096974836533405551 7.6669802870411594142 10.608848816250334934 11.047891698738673938 12.524455437425526583 10.068476178191913206 10.256404348386906733 9.4957524567410853678 11.176577853013505148 9.2901992041435974556 9.425797411789348601 10.158969978128792988 11.431740798526419667 10.110428933718880629 12.600361661720439699 10.687416520555824917 10.713404055424408767 12.962541151358022873 13.548417404591001301 11.345110680031055495 13.86765582685610454 11.523564026875138921 10.419574800091069733 10.969304300938059527 12.456507231603643149 10.970746245602398972 13.400539501763219619 11.006703251678708 15.421447256126425529 12.018443448716457311 10.965245020954206723 12.107465289796683905 11.152417687479699637 14.143744401696039859 10.768741124979559487 10.58038491787931612 10.597349966908073071 10.953864113895271259 11.831405808615771846 11.030488072199492677 10.980695307937502037 11.231254461978421588 11.229135783101968471 11.476989758308974388 11.551056280428394274 11.7250225156210508 11.734373996332823964 12.82881920853908575 11.763633659331960146 11.907117883628488997 13.173529102369339938 11.927126757500939647 11.732791571542609432 11.855373874152501656 15.774782895903776136 24.406718270221340106 17.911634477401573662 12.384568583243405371 15.202302453487227751 14.881909436225452481 13.211445603766298618 12.773395290862485041 13.11329629467785729 12.925575895462918297 18.441952419119083117 19.753238860811329403 15.048845366857957373 17.500462785353416706 14.651013881380952952 13.492288325909051139 16.807660285906024455 17.7863879855865612 15.090249571637620818 15.42084407401467061 13.856126591832019557 13.361315584399536149 12.494614393289431575 12.329212339025430012 12.261497363629453972 12.394142036273326113 12.722028202372507977 15.404585478571609869 11.666276303338296572 11.286372086248409374 10.041116691832234764 10.486580607545565869 11.194251309187015053 17.316636040272303632 13.601662612907349015 13.749166259105578547 13.682735790533458342 13.653981653038018251 13.459191313832972625 13.526716998162809702 100 100 100 100 100 100 100 100 100 100 100 100 100 100 100 100 100 100 100 100 100 100 100 100
-999 -999 -999 -999 -999 -999 -999 -999 -999 -999 -999 -999 -999 -999 -999 -999 -999 -999 -999 -999 -999 -999 -999 -999 -999 -999 -999 -999 -999 -999 -999 -999 6.7034084197201257993 6.7033046381493415211 7.1061530719015264523 8.0837125042083695092 11.812870135448408249 8.2145118890961814628 8.4230796758370214405 6.7799169703327866188 6.4613465040221278457 6.5351575297064421477 6.5936545800184456212 7.3915164440037441906 14.037400873634927834 9.8998937443041494788 8.9414272275990125394 10.79895026494294008 8.271136282702864051 10.058750730708419852 16.240883553098644398 15.312403396224466334 6.6115553319292894585 5.6910163923772767447 5.8463868526714559692 6.1450424828863132731 6.2969127997933060925 6.4163639584763645374 6.3790267211583158158 6.3644311473053907235 6.3186208901168399166 6.2891904281280517353 6.2890862205236333082 6.3581388057781227374 6.4160696984521683461 6.4444216260824527254 6.9655509000761925975 7.1322770137713655814 10.756578106388930749 7.7942333863611272804 7.8022914963020930657 6.9773756387689269687 6.5345516233532201511 6.7333405683124594177 6.7136970201026482385 7.0792219707193835276 11.8640549177353396 11.900270813346505605 10.940469346223473224 11.598148195800938254 11.840649563570135427 11.62391870151734885 12.862244447651512758 9.4213541374680911389 9.4012374153207449723 9.4500499211264834543 10.43425130640879317 11.940362157292680578 11.546218390931171527 10.995708139603399545 10.224301263933002204 11.942557565246055162 9.8320088074905083175 9.7647164042160756736 12.084841255868884247 9.6694941887715977202 9.7815981926289001791 9.8712161899842776336 9.7573370084276085379 10.176609605644754808 10.294681292700948561 12.571406830824322753 12.522674133349541492 13.579605084467507581 11.293138252487249673 11.505221677114549905 11.223441226434031748 10.896922170514383055 10.448852633468407092 10.497378501245846039 10.677763490142913483 10.665223187002188965 10.59833380899788402 10.833492611586461152 10.943311352631607036 11.314950171149630975 11.868726463029972251 11.458130285086392419 11.346156875539334052 11.319788672816349262 11.487797437313949089 11.447345112119768018 11.448020025918008713 11.521369203793828007 11.917399542381236444 11.687543083080811357 11.603709954340029498 11.61147963725604626 12.030756665845064646 15.423951393292988143 14.504229184852304613 15.412843898932639064 14.291276962935445027 14.866612601259566517 15.034765761435190612 16.338816083737395246 16.147399603998657369 15.477584822619066429 11.670048626868640085 14.829902010850434024 16.445857835232359889 15.35698742578183662 12.853062853036194113 16.908999801332377899 16.914261840814273086 15.185526020384225276 14.074720182595164886 13.409767404153257075 13.219081953430883658 12.462111991187201809 12.44864379388934772 12.229497595429707602 12.42562642331120415 16.34017852552349126 13.207285794213666108 16.479608743972608664 10.29455011987307067 10.135229175445200411 11.265486456813487592 18.590632529041084098 18.343302131276683298 13.368064349597533536 13.627181697577691821 13.776374261445726077 13.608211904617862231 13.335646863512275573 13.445727824128949734 100 100 100 100 100 100 100 100 100 100 100 100 100 100 100 100 100 100 100 100 100 100 100 100 100
-999 -999 -999 -999 -999 -999 -999 -999 -999 -999 -999 -999 -999 -999 -999 -999 -999 -999 -999 -999 -999 -999 -999 -999 -999 -999 -999 -999 -999 -999 -999 6.4689068898609995983 6.7823420940679692848 6.94826846601384851 9.4102827592358213593 10.357676843936422628 11.800830393950500152 13.614598044067735216 8.0196173277730427031 11.332549304684251368 6.7537583033541741528 6.4267495621293191377 6.6368296876324928135 6.9262100285017691448 7.2146250139808687507 7.2263825992854204827 7.3205468980600363338 7.1611299581924692248 8.2831908594380152522 7.831620894621024398 6.7581937654139574434 6.113509783372716555 5.7844310395438505168 6.0887738891843499189 6.3143910639151208386 6.4043111568336490436 6.3312350345505326032 6.3941147227197081548 6.5119773127922639944 6.5928060878104988163 6.6794809756070412377 6.6662697551347660507 6.6347622267271830765 6.6528986713945243991 6.8040057519637091588 7.3568903569840289336 7.0385544470594894051 7.2192406799854058619 10.283769290549260589 6.8457538978283505315 7.8268455739134852323 13.101386904632747132 11.551014433650911073 6.8803711777853484577 7.1940941898205137406 6.9492728966361125842 7.7409097096436703112 8.9883747533847486721 10.702076173222067723 9.4292244999162484476 9.5166191072579913168 10.748992401402807317 12.232514321263975532 11.007538338836695857 9.5761560563591689998 9.3445444178148040493 10.155724828469404386 10.093963232733287327 9.7185592207828523925 9.605106916059439115 9.6262223682569860728 9.7206616858069718745 9.6932106130550614864 9.7668074880329278642 9.6739794690334210969 11.049899499420634541 10.038391415537628149 9.9443130579008993664 9.7807645079403044974 10.038965467221395045 9.7701265870531237567 10.681511429868422169 10.984646123552385788 10.718242179488896682 11.162474013538394857 10.816394021761194466 10.979431759907443578 11.191383684523895425 10.409976373148856155 10.432241640150463624 10.339842765660208102 10.428858284003620582 10.640120999212724584 10.825375248500023417 11.159906453804055104 11.044865501383139161 10.9309220909137359 11.054583103721673965 11.101217567203283565 11.120958878510025514 11.264000182838769248 11.503089773047500799 12.430350263012895695 11.296783105946881065 11.33736654145363687 11.443540101791851882 11.512523760683896157 11.452884889519133083 11.537309697397070352 11.560287417458523507 11.911123603948517768 12.654869258036358204 18.857057376853369135 13.274854892468267664 14.706715928506273627 14.497052592882168298 19.039969276969639367 15.907649581418279894 11.589049841225055104 12.550988658371050377 11.810473443041205499 11.7031104131732544 11.666507550280863725 13.552650524635616591 14.845855925228265804 12.829022126370093204 12.188959269882824188 12.214381711402129582 12.215536230087165492 13.582134743223907236 16.927054709008157118 19.65021603017147811 15.037483234922923714 11.226131977144717666 10.651178941657690302 10.813963905465037385 10.406698969045558911 10.525294327913480075 17.040526645034589137 19.828793701336671518 13.64111701327865056 13.251824940761343541 13.45917944805411004 13.466409306509124377 13.443508521820408674 13.313369385531757416 100 100 100 100 100 100 100 100 100 100 100 100 100 100 100 100 100 100 100 100 100 100 100 100 100 100
-999 -999 -999 -999 -999 -999 -999 -999 -999 -999 -999 -999 -999 -999 -999 -999 -999 -999 -999 -999 -999 -999 -999 -999 -999 -999 -999 -999 -999 -999 6.5243849902305468547 6.4078211211874629427 8.0323469908224645053 7.2431367728226092595 9.5912803361637042343 7.3299197106691531545 6.6762795170248585563 8.6814912235479972935 13.459536647530001119 7.6791876217987056208 7.7732259762325695007 6.7073262331258458602 6.666863160176554004 6.7820598183767346612 6.8513768304969850931 6.8542308239230997913 7.1696316081318709479 7.9582977511202566134 7.5570973928271074627 7.6230268991005489809 5.7370238421586172706 5.6420223318864879403 6.0496427484940920039 6.1807913293080467554 6.1894649692935530538 6.3270404197132847912 6.4527920059699273025 6.5395705772815455603 6.560421806309069126 6.618918224348311341 7.1506616139420469125 6.9591411417653228355 7.0394554643640656622 7.122112351199826108 7.1698219385180230745 7.2218364932900609432 7.2397070924356095034 6.8423235208667492202 7.0118472625315737545 6.8635708360208900203 8.514062768155454819 7.8245231243561192969 10.497198692157658328 8.8741902536708252569 8.7422871871727299009 7.3498182027143172945 7.402696855155425304 8.3126015727649118503 15.95125126121691217 12.878200081814075162 11.12772578119519018 11.324766345291456204 12.312763684092200123 11.961368960711295628 11.037502534039267843 10.103703186444194628 16.660137168574227218 17.570965190371065745 10.91130101908324157 9.4902192087258452347 9.9864131423021671452 10.494099126123035859 10.273043935865912246 10.171392850438587985 10.124057231364680831 11.906396877566495007 11.402499515242263683 11.792878779931186273 12.182308668504683524 9.7753081991818238095 9.6809743963441334813 9.7584583329641532146 12.141455282312152875 10.697952250998191914 14.474593346582055986 13.7318036242718442 10.812858157385390356 11.085128784643126565 12.722047267163686612 10.271176957840978616 10.289781033616165473 10.607473679545616818 11.059984834492960104 11.467891966553860783 14.925862373478262057 17.776678874269791208 11.168282490153305986 10.7715312352872985 10.828886546969243909 10.768743840149447522 10.923048220344435677 11.166827895747497124 11.191595070271983303 11.34346438799809853 11.262661615986530705 11.325184190206528001 11.40973450616794338 11.569339268083838945 11.468184231849999577 11.545524950792225738 11.59127995404429079 11.94968481817206829 14.040129042505956392 18.186884478440312307 20.66239611834516765 16.043441800305977551 17.286209255058516021 13.449632460311605087 16.559862779317239045 11.622735798834511911 11.149882389596969645 11.376818941675727714 11.900185841812218612 12.686549592953825893 14.410615324287469718 12.989786253593655019 12.65355328803123669 16.498445678332799957 12.801945796964163904 11.788175533652738736 11.479862672767898957 11.014904360579485854 10.033964640175639715 10.043313278451780235 10.084294147145326903 11.167730658652988751 18.800075170571268757 18.579943751761422988 13.091918441708131127 13.994329430348260601 13.60669394348464678 13.428050522790746513 13.320179720733909434 13.322915858457125893 13.176225056713425587 100 100 100 100 100 100 100 100 100 100 100 100 100 100 100 100 100 100 100 100 100 100 100 100 100 100 100
-999 -999 -999 -999 -999 -999 -999 -999 -999 -999 -999 -999 -999 -999 -999 -999 -999 -999 -999 -999 -999 -999 -999 -999 -999 -999 -999 -999 -999 6.4951340950506368799 6.3774566221242068309 6.4882936910685620191 7.1549186076281410251 7.837141163471145866 8.0310399537547993987 6.2421180306692418682 6.3577925107391806137 6.5753592801838900428 11.220564295169950242 11.751691587463957589 8.2493824115160432342 7.0087698165658585125 6.6885932947781441271 6.8003873855910841328 6.9281485115103746963 7.1297426700864869886 7.6914895278803552259 7.551299879432348483 7.6350204592924395541 6.1079678211051486869 5.8213589762904192071 5.9082667532111390329 6.2759199706019508369 6.4138943857521804048 6.4734682240052885405 6.5124973138606065959 6.6282610263593770838 6.749353971291938592 6.624729237091748324 6.8017848631292494588 7.2981597328899443511 7.0645670544057201923 7.1597355163537130807 7.3746011623178899796 7.3167691957587814855 7.5838163177323529851 7.5818045816247829904 7.3074415310473046503 10.998339896916409231 8.2127403080417362702 7.3599237732957023539 8.0979771384318901539 7.2979225629786954599 10.026524402041639306 9.8816620076995000943 7.5338303906037848989 7.5348052064896933189 8.1411168789288996805 9.8924110525076809353 16.7297896128210688 11.506298321687637554 9.5016168883380558441 11.588655748574963056 12.190423742493772252 11.18111356097049125 12.006207867151697855 11.658312985205224521 14.179285083925387667 17.060757530601936338 9.6721630531185507351 11.939801080202268935 10.468312552250239378 9.9259796230232275605 13.281725136080597238 10.291593742051475147 12.535319464386196486 11.149517230143809243 12.815082388402375457 11.263981107813171079 10.840401631796391158 10.768317652316707012 9.6651048728355135609 9.7086663368534971141 10.465622981459489438 13.071771163817643924 14.646271515237893723 11.036773111938405378 12.963685950253635681 12.858909794338485355 10.551566889206259958 10.560139787071539885 12.477604649965693184 16.830726860328493188 12.544964352880878522 13.473858419234179706 11.718399535971466108 13.44302213816950875 10.84783558968421957 11.169728250998424812 10.727778045619297487 10.79189248649413102 11.170319154035315279 12.096734340416503528 11.964964094399910266 11.282000934681803983 11.242092843195276686 11.357102295717043106 11.540886834529796801 11.544128266706957575 11.498099869697423259 11.449707539630258779 11.456924711839043596 14.903106491115369892 19.376986994591877789 21.371185551306101758 17.256492591970356898 15.761644424990381097 12.090399428310124819 11.644671480250064377 12.338314832716463343 13.505330108238759124 12.929684168398850375 18.159205310480437845 17.421118925840271885 17.46053464391973975 14.575687533725487199 11.72854116527235746 10.332618383712112831 9.9043892099456201095 9.8838478822181006223 9.6658934917915857454 9.975610204842835671 10.714186377571502717 10.829226269280848527 17.167129047653475027 17.711545964262843 17.380868466834492381 17.981374794145384755 15.858255127652309824 17.5669814366737711 13.479583678946866598 13.395731352525116264 13.280076466484841191 13.16933191460414676 100 100 100 100 100 100 100 100 100 100 100 100 100 100 100 100 100 100 100 100 100 100 100 100 100 100 100 100
-999 -999 -999 -999 -999 -999 -999 -999 -999 -999 -999 -999 -999 -999 -999 -999 -999 -999 -999 -999 -999 -999 -999 -999 -999 -999 -999 -999 6.2231851641973889855 7.1360874583344493516 6.7070505523029870787 8.9559553429014417958 8.817057695264491457 6.4509266641438740564 6.3380939913214691117 6.2284419515124263 6.7740250317356816012 11.272001101418991809 11.542814117980366717 13.218254716566480766 12.755588770198091453 7.5935050186861090538 7.0536435350471258232 6.9329723353454371093 6.910867750261062703 7.0956939243177421517 7.6086863010030798549 7.7142677649325790412 6.3620088463451152094 6.0874202308099638614 6.0976553143649843136 6.8961004061735788895 6.7423406029583548005 8.5658005606042042501 9.1584252477155185801 9.4102771823319155686 9.8093908515434797835 14.82810414743725147 9.1172827082232270612 9.979788880472364454 8.1735187747218560617 7.9877532709120275811 7.3888354999999714678 10.091365895899546246 15.879036509326871496 8.0552587904622505732 13.02763103994832683 8.6489632300104251073 13.653617835649562551 13.380081351368104947 8.3830189735065019363 7.6463515381426594431 7.3222325991042662707 7.2312730859476674894 7.1957587247713643563 7.9858378120716517756 7.3962303525595700648 8.4375905910392283715 8.4568726658531012674 8.5989747471183139993 8.5225919703865198329 12.341508489883672439 9.7502074999157457569 10.48645495360832669 10.996108860882188196 13.253347263105814235 10.136249245480723147 13.043974674550577575 10.215131026042632456 9.5297486423340753703 10.431089165297095178 11.403865746760201816 10.157155930658575471 13.555306079013060838 10.506200011817773188 12.400304975901571325 10.996125403852889946 13.893743003614465792 10.683114273617057677 12.543437175580182341 12.032229555128221676 12.58372320218505358 9.8230997210115056362 9.5700211776003367703 12.107814970953917566 10.975695965051658121 11.193052218509091489 12.806002813780589022 10.585220132730499998 12.042045222390292736 11.672678847737911312 21.402300789652525026 14.385659103918170487 10.807594046329391801 10.623540996735091113 10.405815503742413597 17.697323914981094362 10.602671546003806569 10.704531182082206442 10.731170961709464606 10.815822806668542455 11.049576219463826732 11.158647489735907143 11.221576977790395091 11.14489024058654465 11.286611776220393466 11.220317995618993123 11.524243813568958217 11.363769577838608527 11.264196311826111696 11.284519609909633431 11.921814781187913823 14.55879456800460936 18.172083282139816163 18.574379249033089678 13.033566319920506515 12.024513351910943726 14.6417039784300691 18.061963212660415934 15.868380139532987982 16.471553561526608433 15.25016294035616049 18.866476584160807306 14.259323746412343681 15.432442679128483221 9.964152971015696636 9.7006757113167854101 9.5956513743517568571 9.6112488683381922527 10.081720513745469958 13.892308389522453282 15.65706902546835444 18.179210620420175104 18.211150844381460701 16.163653169257713671 14.535412354790151923 14.07225625403692959 20.439224980308008384 16.759186043588556458 13.384747750698958058 13.124348511043665511 12.866188847951899987 12.822147679263444786 100 100 100 100 100 100 100 100 100 100 100 100 100 100 100 100 100 100 100 100 100 100 100 100 100 100 100 100 100
