ncols         192
nrows         44
xllcorner     1771145
yllcorner     5472504
cellsize      10.000000
NODATA_value  -9999.000000
10000000000.000	10000000000.000	10000000000.000	10000000000.000	10000000000.000	10000000000.000	10000000000.000	10000000000.000	10000000000.000	10000000000.000	10000000000.000	10000000000.000	10000000000.000	10000000000.000	10000000000.000	10000000000.000	10000000000.000	10000000000.000	10000000000.000	10000000000.000	10000000000.000	10000000000.000	10000000000.000	10000000000.000	10000000000.000	10000000000.000	10000000000.000	10000000000.000	10000000000.000	10000000000.000	10000000000.000	10000000000.000	10000000000.000	10000000000.000	10000000000.000	10000000000.000	10000000000.000	10000000000.000	10000000000.000	10000000000.000	10000000000.000	10000000000.000	10000000000.000	10000000000.000	10000000000.000	10000000000.000	10000000000.000	10000000000.000	10000000000.000	7.662	7.882	7.866	7.923	7.602	8.630	9.918	12.710	12.583	11.479	10.310	7.100	6.644	7.174	7.413	7.251	7.380	7.440	7.566	7.629	7.880	7.809	7.852	8.002	8.291	8.412	8.368	8.446	8.590	8.651	8.768	9.006	9.120	9.164	9.186	9.418	9.540	9.586	9.693	9.669	9.567	9.883	9.920	11.175	9.674	10.962	11.739	11.199	10.523	10.549	10.951	11.005	12.375	11.264	11.710	12.972	12.511	11.462	12.890	16.955	12.987	14.090	17.349	14.237	14.567	14.655	13.282	13.358	14.055	13.888	13.820	25.800	13.917	18.928	21.456	23.053	22.104	21.779	17.355	15.777	14.989	15.893	13.839	14.391	14.317	19.474	21.013	14.931	19.830	14.492	15.006	15.068	23.532	24.016	15.299	15.845	18.186	16.453	20.122	22.821	31.268	28.884	25.778	27.528	29.959	29.802	30.215	28.854	29.315	30.213	30.553	28.539	30.644	29.617	29.365	22.791	16.772	14.121	17.025	20.197	17.273	17.852	16.561	15.584	11.816	11.209	11.117	11.357	10000000000.000	10000000000.000	10000000000.000	10000000000.000	10000000000.000	10000000000.000	10000000000.000	100.000	100.000	100.000	100.000	100.000	100.000	100.000	100.000
10000000000.000	10000000000.000	10000000000.000	10000000000.000	10000000000.000	10000000000.000	10000000000.000	10000000000.000	10000000000.000	10000000000.000	10000000000.000	10000000000.000	10000000000.000	10000000000.000	10000000000.000	10000000000.000	10000000000.000	10000000000.000	10000000000.000	10000000000.000	10000000000.000	10000000000.000	10000000000.000	10000000000.000	10000000000.000	10000000000.000	10000000000.000	10000000000.000	10000000000.000	10000000000.000	10000000000.000	10000000000.000	10000000000.000	10000000000.000	10000000000.000	10000000000.000	10000000000.000	10000000000.000	10000000000.000	10000000000.000	10000000000.000	10000000000.000	10000000000.000	10000000000.000	10000000000.000	10000000000.000	10000000000.000	10000000000.000	7.828	8.810	11.859	7.878	7.727	10.043	7.618	12.342	9.324	8.874	8.178	11.283	8.625	8.827	6.860	7.444	7.740	10.314	8.891	9.550	9.897	8.647	8.317	7.709	8.123	12.729	15.845	8.806	8.232	8.366	8.471	11.060	8.678	9.436	9.014	11.583	12.285	9.328	9.307	11.643	12.412	9.593	9.648	10.336	11.783	9.732	9.885	10.098	10.192	10.283	10.593	10.794	10.747	10.945	11.204	11.345	11.481	11.612	11.721	11.733	11.875	11.963	12.890	12.351	14.061	14.065	13.277	13.264	21.109	14.033	17.413	16.159	16.085	14.998	14.220	20.788	22.672	21.498	14.212	13.758	13.985	13.844	15.107	14.509	14.894	17.109	13.816	14.151	13.999	14.673	14.875	16.906	14.571	14.822	26.721	23.082	20.600	16.064	25.146	23.590	26.108	28.304	26.439	29.257	31.130	31.082	25.424	26.770	30.544	28.910	28.296	30.311	29.834	30.277	27.275	25.946	16.088	20.480	14.551	17.913	19.485	18.592	21.457	13.578	11.668	10.954	10.916	11.305	12.401	13.281	10000000000.000	10000000000.000	10000000000.000	10000000000.000	10000000000.000	100.000	100.000	100.000	100.000	100.000	100.000	100.000	100.000	100.000
10000000000.000	10000000000.000	10000000000.000	10000000000.000	10000000000.000	10000000000.000	10000000000.000	10000000000.000	10000000000.000	10000000000.000	10000000000.000	10000000000.000	10000000000.000	10000000000.000	10000000000.000	10000000000.000	10000000000.000	10000000000.000	10000000000.000	10000000000.000	10000000000.000	10000000000.000	10000000000.000	10000000000.000	10000000000.000	10000000000.000	10000000000.000	10000000000.000	10000000000.000	10000000000.000	10000000000.000	10000000000.000	10000000000.000	10000000000.000	10000000000.000	10000000000.000	10000000000.000	10000000000.000	10000000000.000	10000000000.000	10000000000.000	10000000000.000	10000000000.000	10000000000.000	10000000000.000	10000000000.000	10000000000.000	7.904	8.749	7.886	8.662	10.066	10.454	8.253	10.523	10.096	12.470	9.386	6.908	8.402	10.984	9.414	7.709	7.981	12.049	10.054	11.078	8.637	10.680	9.091	10.892	10.185	8.340	9.450	11.262	9.374	8.111	8.326	9.501	9.610	9.231	9.187	9.107	9.312	9.410	11.238	9.340	10.773	13.840	10.064	10.152	13.782	17.012	9.822	11.646	9.928	10.054	10.057	10.091	10.986	12.691	10.796	11.518	13.484	11.588	11.734	11.950	11.831	11.929	12.238	12.667	15.890	14.896	12.930	12.908	14.492	22.723	18.330	16.362	15.719	14.407	15.190	14.785	13.536	18.034	13.882	13.491	13.510	14.435	14.007	14.768	19.073	14.367	15.482	13.543	13.471	13.709	17.383	17.058	15.383	14.224	16.664	19.351	27.149	25.541	26.348	32.244	29.682	25.740	27.406	25.582	29.901	32.893	30.575	20.699	24.533	28.699	28.447	23.643	29.199	29.515	25.482	23.819	20.661	15.447	14.304	17.394	16.264	22.322	21.066	13.906	11.780	11.143	10.845	11.212	12.510	14.716	14.496	15.565	10000000000.000	10000000000.000	10000000000.000	100.000	100.000	100.000	100.000	100.000	100.000	100.000	100.000	100.000	100.000
10000000000.000	10000000000.000	10000000000.000	10000000000.000	10000000000.000	10000000000.000	10000000000.000	10000000000.000	10000000000.000	10000000000.000	10000000000.000	10000000000.000	10000000000.000	10000000000.000	10000000000.000	10000000000.000	10000000000.000	10000000000.000	10000000000.000	10000000000.000	10000000000.000	10000000000.000	10000000000.000	10000000000.000	10000000000.000	10000000000.000	10000000000.000	10000000000.000	10000000000.000	10000000000.000	10000000000.000	10000000000.000	10000000000.000	10000000000.000	10000000000.000	10000000000.000	10000000000.000	10000000000.000	10000000000.000	10000000000.000	10000000000.000	10000000000.000	10000000000.000	10000000000.000	10000000000.000	10000000000.000	7.465	7.453	10.106	8.944	10.914	9.255	10.668	8.542	10.536	9.691	7.886	8.943	10.113	9.552	10.892	10.060	7.139	8.047	10.823	11.786	10.642	8.222	9.857	8.044	10.189	10.855	8.325	9.236	11.160	9.093	10.498	8.981	8.720	9.609	11.457	9.312	9.390	12.712	12.700	10.055	12.076	10.509	10.233	10.435	10.669	15.917	11.320	15.555	12.269	11.213	10.257	10.111	10.001	12.029	11.507	14.087	14.245	11.856	14.676	15.680	19.278	12.616	12.120	12.108	14.368	17.187	18.481	12.704	13.119	16.800	21.828	18.237	14.401	12.909	15.830	16.269	16.447	13.172	12.942	12.868	16.440	15.436	15.133	14.188	13.892	19.769	16.263	14.707	14.124	14.759	13.533	13.418	15.893	16.876	14.213	14.464	15.241	19.891	24.274	26.792	25.607	28.590	26.624	28.658	19.206	27.386	28.671	23.819	27.345	30.051	32.057	30.582	27.777	27.149	27.827	22.159	20.008	16.795	15.376	16.831	16.945	14.860	17.009	12.786	11.910	11.200	10.857	11.071	12.044	16.900	14.123	22.231	15.072	14.633	10000000000.000	100.000	100.000	100.000	100.000	100.000	100.000	100.000	100.000	100.000	100.000	100.000
10000000000.000	10000000000.000	10000000000.000	10000000000.000	10000000000.000	10000000000.000	10000000000.000	10000000000.000	10000000000.000	10000000000.000	10000000000.000	10000000000.000	10000000000.000	10000000000.000	10000000000.000	10000000000.000	10000000000.000	10000000000.000	10000000000.000	10000000000.000	10000000000.000	10000000000.000	10000000000.000	10000000000.000	10000000000.000	10000000000.000	10000000000.000	10000000000.000	10000000000.000	10000000000.000	10000000000.000	10000000000.000	10000000000.000	10000000000.000	10000000000.000	10000000000.000	10000000000.000	10000000000.000	10000000000.000	10000000000.000	10000000000.000	10000000000.000	10000000000.000	10000000000.000	10000000000.000	7.859	8.622	9.209	10.320	8.066	8.477	8.194	10.164	8.367	10.178	10.282	7.117	8.453	9.102	8.519	7.340	9.229	7.361	9.887	10.109	8.850	7.757	7.863	7.844	8.260	8.318	8.705	8.083	9.868	10.482	9.565	11.108	8.786	8.811	10.627	14.805	10.232	9.638	9.678	9.842	10.103	12.691	10.560	13.249	10.433	10.016	12.401	11.512	10.208	12.974	10.363	12.848	13.257	10.608	12.410	10.821	13.707	12.450	11.997	11.769	14.454	13.335	11.787	11.497	12.765	16.397	17.301	12.390	16.258	15.104	12.448	16.180	20.775	17.888	12.807	12.788	13.838	18.146	15.069	13.692	12.839	13.002	13.472	14.552	15.888	13.746	16.365	14.632	17.060	14.800	15.413	14.576	13.324	13.456	15.762	16.699	14.551	13.825	14.121	18.191	19.655	25.561	27.419	29.365	29.802	27.380	19.705	18.004	19.443	27.190	27.936	24.325	26.368	22.606	18.849	19.404	16.896	15.954	16.900	17.684	19.772	15.036	17.994	12.388	11.798	11.439	10.901	10.923	11.762	16.834	13.670	14.807	20.694	15.005	14.466	100.000	100.000	100.000	100.000	100.000	100.000	100.000	100.000	100.000	100.000	100.000	100.000
10000000000.000	10000000000.000	10000000000.000	10000000000.000	10000000000.000	10000000000.000	10000000000.000	10000000000.000	10000000000.000	10000000000.000	10000000000.000	10000000000.000	10000000000.000	10000000000.000	10000000000.000	10000000000.000	10000000000.000	10000000000.000	10000000000.000	10000000000.000	10000000000.000	10000000000.000	10000000000.000	10000000000.000	10000000000.000	10000000000.000	10000000000.000	10000000000.000	10000000000.000	10000000000.000	10000000000.000	10000000000.000	10000000000.000	10000000000.000	10000000000.000	10000000000.000	10000000000.000	10000000000.000	10000000000.000	10000000000.000	10000000000.000	10000000000.000	10000000000.000	10000000000.000	12.110	8.430	10.393	7.561	7.624	10.223	10.095	9.849	8.955	8.693	8.079	15.289	7.758	8.962	7.819	8.715	8.800	8.352	9.305	8.544	8.765	9.371	7.558	9.783	10.318	8.479	9.342	11.117	8.712	9.759	9.160	12.055	10.989	9.225	8.970	9.795	14.497	9.994	9.904	9.574	9.704	12.351	11.649	13.414	10.343	9.942	13.262	13.391	11.868	10.458	12.313	10.423	12.276	12.971	10.305	10.706	10.730	13.303	14.948	13.814	12.577	14.495	11.765	13.429	13.195	14.376	11.938	11.913	16.341	18.438	13.559	12.975	17.832	14.914	19.612	13.293	13.011	14.354	13.633	18.377	13.858	13.031	12.851	13.086	13.562	14.696	13.990	14.573	13.835	15.392	17.177	16.562	15.297	14.217	13.235	13.651	16.190	14.629	13.381	13.473	14.163	16.163	23.398	28.535	28.528	29.070	27.399	21.164	25.644	19.081	23.076	24.991	19.113	16.489	15.561	14.636	16.486	14.310	15.190	16.005	18.061	23.306	15.316	19.531	12.279	11.471	10.905	10.905	11.510	13.688	13.607	14.601	15.722	15.426	14.394	100.000	100.000	100.000	100.000	100.000	100.000	100.000	100.000	100.000	100.000	100.000	100.000	100.000
10000000000.000	10000000000.000	10000000000.000	10000000000.000	10000000000.000	10000000000.000	10000000000.000	10000000000.000	10000000000.000	10000000000.000	10000000000.000	10000000000.000	10000000000.000	10000000000.000	10000000000.000	10000000000.000	10000000000.000	10000000000.000	10000000000.000	10000000000.000	10000000000.000	10000000000.000	10000000000.000	10000000000.000	10000000000.000	10000000000.000	10000000000.000	10000000000.000	10000000000.000	10000000000.000	10000000000.000	10000000000.000	10000000000.000	10000000000.000	10000000000.000	10000000000.000	10000000000.000	10000000000.000	10000000000.000	10000000000.000	10000000000.000	10000000000.000	10000000000.000	15.686	12.447	11.404	7.877	11.261	7.779	7.697	7.706	11.257	9.992	8.273	8.027	9.778	11.803	10.867	10.245	9.452	19.962	16.449	15.228	13.680	15.616	11.982	8.069	10.218	10.180	10.297	8.450	8.139	10.270	11.508	9.234	10.086	16.924	9.689	9.261	10.477	13.634	9.903	10.286	10.414	9.885	10.802	14.472	11.863	10.840	13.250	13.393	14.990	14.711	10.979	12.150	10.456	12.088	12.913	10.443	12.389	12.445	13.874	12.532	13.749	12.474	13.524	11.862	13.992	11.894	11.943	11.483	11.904	15.002	15.930	15.626	13.070	13.161	13.706	17.567	19.295	16.599	13.308	15.068	14.145	17.583	15.495	13.171	12.836	12.756	13.543	13.693	15.834	13.811	15.165	20.140	14.602	16.726	15.714	13.478	13.128	15.342	13.341	13.173	15.238	14.151	16.939	15.411	26.065	28.873	30.130	29.424	29.677	27.963	26.266	26.453	20.708	20.070	15.531	14.688	14.939	15.666	14.927	16.369	14.310	20.528	21.920	13.237	11.512	11.355	10.695	10.813	11.131	13.424	13.425	14.881	24.217	15.252	14.349	100.000	100.000	100.000	100.000	100.000	100.000	100.000	100.000	100.000	100.000	100.000	100.000	100.000	100.000
10000000000.000	10000000000.000	10000000000.000	10000000000.000	10000000000.000	10000000000.000	10000000000.000	10000000000.000	10000000000.000	10000000000.000	10000000000.000	10000000000.000	10000000000.000	10000000000.000	10000000000.000	10000000000.000	10000000000.000	10000000000.000	10000000000.000	10000000000.000	10000000000.000	10000000000.000	10000000000.000	10000000000.000	10000000000.000	10000000000.000	10000000000.000	10000000000.000	10000000000.000	10000000000.000	10000000000.000	10000000000.000	10000000000.000	10000000000.000	10000000000.000	10000000000.000	10000000000.000	10000000000.000	10000000000.000	10000000000.000	10000000000.000	10000000000.000	15.097	13.311	8.714	9.293	7.520	10.476	9.897	9.628	10.328	9.878	7.826	7.740	7.751	8.102	8.646	10.424	9.935	11.333	13.432	12.424	12.684	14.598	9.115	12.981	13.849	12.894	9.973	12.983	9.770	9.913	8.738	14.364	9.686	11.446	10.801	9.517	9.567	9.671	9.675	9.956	10.416	13.142	10.879	13.740	11.242	12.632	11.455	11.261	11.793	12.754	11.662	11.451	13.977	10.459	10.502	14.027	11.328	13.088	14.243	12.233	12.467	11.849	12.806	11.384	13.113	11.747	13.582	11.274	11.980	11.844	15.296	12.909	16.405	16.043	15.078	16.352	14.046	13.979	17.430	13.519	18.850	14.717	14.058	15.884	14.860	13.069	12.850	13.931	14.202	13.735	16.404	13.552	14.142	15.795	13.728	15.312	16.764	13.449	12.968	13.084	14.046	18.080	16.750	16.552	15.078	23.650	28.628	29.634	29.636	27.432	24.926	22.725	14.558	16.381	15.587	15.297	14.446	14.616	14.903	14.353	13.963	13.927	14.908	17.429	11.432	11.148	10.843	10.736	11.001	13.105	13.284	14.058	17.341	20.769	14.342	100.000	100.000	100.000	100.000	100.000	100.000	100.000	100.000	100.000	100.000	100.000	100.000	100.000	100.000	100.000
10000000000.000	10000000000.000	10000000000.000	10000000000.000	10000000000.000	10000000000.000	10000000000.000	10000000000.000	10000000000.000	10000000000.000	10000000000.000	10000000000.000	10000000000.000	10000000000.000	10000000000.000	10000000000.000	10000000000.000	10000000000.000	10000000000.000	10000000000.000	10000000000.000	10000000000.000	10000000000.000	10000000000.000	10000000000.000	10000000000.000	10000000000.000	10000000000.000	10000000000.000	10000000000.000	10000000000.000	10000000000.000	10000000000.000	10000000000.000	10000000000.000	10000000000.000	10000000000.000	10000000000.000	10000000000.000	10000000000.000	10000000000.000	12.524	12.889	13.606	8.713	12.001	8.062	12.194	10.373	9.815	7.903	10.260	7.781	8.090	9.212	8.071	7.934	9.142	10.354	10.234	8.619	9.902	11.919	12.548	12.560	10.708	12.828	9.890	9.144	10.462	8.041	8.376	11.420	10.616	14.133	12.714	11.491	11.289	9.406	9.816	11.451	10.447	14.514	11.856	10.531	10.195	12.315	11.271	10.405	10.848	10.382	10.822	11.745	13.608	11.576	14.130	12.654	13.202	11.291	10.823	12.252	12.679	13.524	11.199	11.996	11.529	11.474	12.954	11.077	10.004	11.270	12.557	16.545	12.621	12.617	13.720	13.589	13.655	15.455	13.916	13.507	15.389	16.799	15.559	15.090	14.365	16.846	14.647	15.458	12.859	13.127	13.601	15.914	13.563	16.782	13.682	14.008	16.175	15.819	13.635	13.106	13.282	14.549	14.144	17.257	16.506	17.276	23.498	22.412	26.429	22.919	18.793	17.676	15.028	15.034	15.858	15.592	14.405	14.874	14.368	15.199	13.918	13.971	13.844	17.849	14.782	11.130	10.805	10.644	10.960	12.621	13.358	14.068	17.537	14.252	13.847	100.000	100.000	100.000	100.000	100.000	100.000	100.000	100.000	100.000	100.000	100.000	100.000	100.000	100.000	100.000	100.000
10000000000.000	10000000000.000	10000000000.000	10000000000.000	10000000000.000	10000000000.000	10000000000.000	10000000000.000	10000000000.000	10000000000.000	10000000000.000	10000000000.000	10000000000.000	10000000000.000	10000000000.000	10000000000.000	10000000000.000	10000000000.000	10000000000.000	10000000000.000	10000000000.000	10000000000.000	10000000000.000	10000000000.000	10000000000.000	10000000000.000	10000000000.000	10000000000.000	10000000000.000	10000000000.000	10000000000.000	10000000000.000	10000000000.000	10000000000.000	10000000000.000	10000000000.000	10000000000.000	10000000000.000	10000000000.000	10000000000.000	6.838	7.822	9.811	8.473	10.618	13.469	14.981	13.989	7.965	7.391	7.976	11.295	9.313	11.158	10.789	8.997	10.287	14.811	9.995	10.578	10.362	9.750	10.631	12.382	15.273	14.138	12.021	10.585	10.612	11.490	9.757	9.209	9.779	9.561	9.539	10.133	11.588	11.532	9.546	9.955	14.635	11.728	11.792	10.451	10.345	10.695	13.610	11.910	12.505	11.076	10.685	15.252	10.886	14.567	11.686	14.418	11.708	11.427	11.960	10.299	10.753	14.171	17.092	14.774	13.205	12.083	12.882	10.852	9.956	10.578	11.351	12.104	12.405	12.399	12.408	12.618	14.419	13.730	13.399	16.140	16.590	13.928	13.517	16.210	14.025	15.434	13.160	14.994	14.987	13.682	12.932	12.618	13.135	16.947	14.145	15.819	14.582	16.792	19.351	13.169	16.058	13.499	17.823	15.467	18.860	17.253	18.001	23.079	21.243	19.716	16.609	14.688	15.510	15.896	15.430	16.705	14.839	14.497	14.513	15.091	13.872	14.013	13.984	16.558	14.975	11.159	10.709	10.600	10.952	12.902	13.407	13.831	14.954	21.682	13.784	100.000	100.000	100.000	100.000	100.000	100.000	100.000	100.000	100.000	100.000	100.000	100.000	100.000	100.000	100.000	100.000	100.000
10000000000.000	10000000000.000	10000000000.000	10000000000.000	10000000000.000	10000000000.000	10000000000.000	10000000000.000	10000000000.000	10000000000.000	10000000000.000	10000000000.000	10000000000.000	10000000000.000	10000000000.000	10000000000.000	10000000000.000	10000000000.000	10000000000.000	10000000000.000	10000000000.000	10000000000.000	10000000000.000	10000000000.000	10000000000.000	10000000000.000	10000000000.000	10000000000.000	10000000000.000	10000000000.000	10000000000.000	10000000000.000	10000000000.000	10000000000.000	10000000000.000	10000000000.000	10000000000.000	10000000000.000	10000000000.000	9.432	8.889	7.833	9.041	13.835	14.604	15.616	8.362	8.755	7.578	7.285	8.423	10.021	13.492	13.870	9.456	11.249	14.207	13.277	7.175	7.323	6.842	6.752	6.917	7.059	8.037	10.336	14.692	11.192	10.696	11.340	11.794	11.636	11.185	12.629	9.767	10.882	13.015	9.956	9.476	9.613	11.893	15.964	12.747	12.849	10.806	13.154	9.966	11.158	13.255	10.444	10.995	11.732	10.661	11.288	10.984	13.270	13.994	11.000	11.564	10.738	10.671	12.401	18.169	20.148	12.483	18.405	11.035	9.829	10.760	11.156	12.815	13.675	11.940	11.765	12.085	12.319	12.556	15.920	15.604	15.625	14.884	12.483	13.005	14.927	13.050	14.295	15.854	15.744	16.973	22.746	15.149	14.549	12.426	14.068	15.962	16.065	12.863	12.475	12.552	14.607	15.415	14.177	14.821	16.560	15.248	16.177	19.776	14.648	14.175	14.356	17.060	15.764	16.144	16.335	15.447	16.337	15.723	15.132	14.687	13.755	14.713	14.379	22.083	12.603	11.200	10.686	10.461	10.921	13.618	13.789	13.983	14.379	15.195	14.414	100.000	100.000	100.000	100.000	100.000	100.000	100.000	100.000	100.000	100.000	100.000	100.000	100.000	100.000	100.000	100.000	100.000	100.000
10000000000.000	10000000000.000	10000000000.000	10000000000.000	10000000000.000	10000000000.000	10000000000.000	10000000000.000	10000000000.000	10000000000.000	10000000000.000	10000000000.000	10000000000.000	10000000000.000	10000000000.000	10000000000.000	10000000000.000	10000000000.000	10000000000.000	10000000000.000	10000000000.000	10000000000.000	10000000000.000	10000000000.000	10000000000.000	10000000000.000	10000000000.000	10000000000.000	10000000000.000	10000000000.000	10000000000.000	10000000000.000	10000000000.000	10000000000.000	10000000000.000	10000000000.000	10000000000.000	10000000000.000	14.176	14.271	14.438	13.616	13.670	11.879	11.752	8.768	8.418	8.212	7.342	7.998	9.857	10.817	13.704	8.395	8.518	10.807	11.844	9.846	9.825	9.797	8.221	7.283	9.696	12.963	7.988	6.438	7.138	9.772	13.298	10.323	9.412	14.386	9.874	9.722	11.895	9.655	13.061	10.391	10.288	12.316	9.851	11.372	12.113	11.397	10.468	10.481	16.619	11.941	12.825	10.861	10.273	10.972	10.800	11.509	11.264	11.237	11.504	11.150	15.035	13.001	13.961	14.623	12.812	18.247	20.849	14.262	11.232	11.843	11.301	11.796	11.735	13.217	14.817	11.544	11.520	11.615	11.915	12.322	12.425	12.833	12.405	12.626	12.313	12.686	15.802	13.776	15.361	13.855	15.315	15.521	14.351	16.319	12.597	12.585	13.346	12.879	12.181	12.220	14.632	15.884	18.856	15.307	18.206	14.940	18.156	26.840	18.742	13.827	19.341	22.924	23.284	13.861	13.557	16.898	13.451	13.632	13.364	13.328	13.276	13.855	14.677	20.038	15.842	12.031	10.692	10.889	11.479	13.299	14.014	14.023	14.755	20.348	13.781	100.000	100.000	100.000	100.000	100.000	100.000	100.000	100.000	100.000	100.000	100.000	100.000	100.000	100.000	100.000	100.000	100.000	100.000	100.000
10000000000.000	10000000000.000	10000000000.000	10000000000.000	10000000000.000	10000000000.000	10000000000.000	10000000000.000	10000000000.000	10000000000.000	10000000000.000	10000000000.000	10000000000.000	10000000000.000	10000000000.000	10000000000.000	10000000000.000	10000000000.000	10000000000.000	10000000000.000	10000000000.000	10000000000.000	10000000000.000	10000000000.000	10000000000.000	10000000000.000	10000000000.000	10000000000.000	10000000000.000	10000000000.000	10000000000.000	10000000000.000	10000000000.000	10000000000.000	10000000000.000	10000000000.000	10000000000.000	14.193	10.314	7.214	7.312	8.465	10.611	9.199	8.845	9.645	11.778	7.816	8.152	8.459	8.606	10.072	8.025	8.495	15.482	8.417	9.866	11.646	14.766	10.926	16.934	8.891	11.808	12.691	10.785	6.944	6.621	8.408	8.232	14.224	10.140	9.657	10.360	9.200	12.064	9.823	10.050	12.184	11.467	14.004	9.909	9.863	14.120	14.542	12.534	10.434	10.285	10.666	10.534	11.506	13.254	13.159	12.872	16.862	12.359	12.643	12.243	14.227	10.969	11.699	13.912	11.470	13.264	19.086	13.434	11.705	15.107	11.120	13.860	13.679	11.744	14.014	13.302	15.096	11.416	11.469	11.728	12.019	11.940	12.381	13.499	12.395	12.460	12.605	13.568	13.101	13.865	13.358	15.159	21.862	16.415	18.351	14.369	12.159	12.078	12.071	11.949	13.180	17.009	14.972	15.056	17.836	16.468	15.803	14.236	28.167	13.858	13.563	14.279	19.328	18.453	18.320	12.802	12.845	12.950	13.041	13.022	13.120	13.384	13.141	20.960	12.867	10.775	10.779	11.336	20.256	22.667	14.647	18.536	15.800	13.928	13.719	100.000	100.000	100.000	100.000	100.000	100.000	100.000	100.000	100.000	100.000	100.000	100.000	100.000	100.000	100.000	100.000	100.000	100.000	100.000	100.000
10000000000.000	10000000000.000	10000000000.000	10000000000.000	10000000000.000	10000000000.000	10000000000.000	10000000000.000	10000000000.000	10000000000.000	10000000000.000	10000000000.000	10000000000.000	10000000000.000	10000000000.000	10000000000.000	10000000000.000	10000000000.000	10000000000.000	10000000000.000	10000000000.000	10000000000.000	10000000000.000	10000000000.000	10000000000.000	10000000000.000	10000000000.000	10000000000.000	10000000000.000	10000000000.000	10000000000.000	10000000000.000	10000000000.000	10000000000.000	10000000000.000	10000000000.000	7.804	13.427	12.584	9.016	6.771	6.906	7.062	7.193	7.531	8.823	8.406	11.372	8.955	10.662	12.296	10.125	8.744	11.044	6.990	5.777	14.359	13.176	18.201	18.972	17.400	12.002	12.150	13.716	12.913	11.358	7.646	9.447	6.779	6.910	7.563	7.057	9.652	9.176	9.476	11.635	9.548	9.353	10.291	10.462	11.786	9.528	9.509	10.587	13.078	11.044	12.132	13.936	11.208	11.005	10.220	10.897	10.484	11.575	10.733	11.100	12.802	13.876	11.440	11.238	11.225	11.626	12.103	14.317	11.834	11.585	11.377	11.158	13.082	11.629	14.116	11.220	12.564	13.437	11.987	11.835	15.595	11.549	11.849	12.071	13.396	12.445	12.595	12.532	12.519	12.574	14.178	13.549	12.988	15.388	14.613	13.694	14.499	12.386	12.491	15.658	13.688	16.617	15.240	15.257	20.344	12.564	14.425	13.300	19.253	17.872	17.184	15.114	17.604	20.196	20.274	22.940	13.211	12.741	12.844	12.937	13.106	13.376	13.178	15.810	12.789	11.698	10.659	14.690	21.269	15.424	21.116	20.088	15.767	13.818	13.548	100.000	100.000	100.000	100.000	100.000	100.000	100.000	100.000	100.000	100.000	100.000	100.000	100.000	100.000	100.000	100.000	100.000	100.000	100.000	100.000	100.000
10000000000.000	10000000000.000	10000000000.000	10000000000.000	10000000000.000	10000000000.000	10000000000.000	10000000000.000	10000000000.000	10000000000.000	10000000000.000	10000000000.000	10000000000.000	10000000000.000	10000000000.000	10000000000.000	10000000000.000	10000000000.000	10000000000.000	10000000000.000	10000000000.000	10000000000.000	10000000000.000	10000000000.000	10000000000.000	10000000000.000	10000000000.000	10000000000.000	10000000000.000	10000000000.000	10000000000.000	10000000000.000	10000000000.000	10000000000.000	10000000000.000	7.522	10.307	13.471	13.373	7.067	6.540	6.720	6.833	7.170	7.419	9.088	7.792	7.632	8.205	10.492	8.616	9.332	13.764	16.373	5.989	7.113	10.888	14.201	17.015	18.519	15.221	13.233	8.297	12.008	12.003	10.286	7.116	6.776	6.886	6.812	6.998	6.517	6.794	8.638	13.515	10.170	11.180	12.136	12.860	10.780	10.179	9.920	9.324	10.438	11.228	11.047	10.642	10.399	10.537	10.800	10.751	11.527	10.672	11.302	10.961	11.305	12.077	12.053	11.410	10.903	10.794	10.592	10.944	11.271	13.998	13.388	11.336	11.152	14.135	13.754	13.023	14.533	12.303	11.376	13.677	15.122	11.566	11.500	11.750	12.105	12.406	12.784	13.336	12.399	12.252	12.257	12.665	13.783	13.142	17.244	16.835	11.824	12.476	20.731	12.522	15.063	15.471	14.504	15.395	22.550	24.973	24.723	21.730	15.742	17.061	18.126	16.421	15.315	12.723	12.660	18.732	20.825	13.549	12.835	12.846	13.019	12.884	14.206	16.768	11.257	10.812	11.442	18.173	21.649	19.118	14.851	14.046	13.915	13.882	13.417	100.000	100.000	100.000	100.000	100.000	100.000	100.000	100.000	100.000	100.000	100.000	100.000	100.000	100.000	100.000	100.000	100.000	100.000	100.000	100.000	100.000	100.000
10000000000.000	10000000000.000	10000000000.000	10000000000.000	10000000000.000	10000000000.000	10000000000.000	10000000000.000	10000000000.000	10000000000.000	10000000000.000	10000000000.000	10000000000.000	10000000000.000	10000000000.000	10000000000.000	10000000000.000	10000000000.000	10000000000.000	10000000000.000	10000000000.000	10000000000.000	10000000000.000	10000000000.000	10000000000.000	10000000000.000	10000000000.000	10000000000.000	10000000000.000	10000000000.000	10000000000.000	10000000000.000	10000000000.000	10000000000.000	12.661	15.237	14.751	13.395	10.704	6.688	6.611	6.676	6.695	6.806	13.312	7.749	7.307	7.492	8.578	8.523	10.465	15.598	13.602	7.312	7.692	7.450	15.984	14.698	17.147	9.103	6.402	6.519	6.611	7.174	7.191	7.514	7.448	6.789	6.836	7.033	7.044	6.725	6.662	6.714	8.464	10.196	9.539	11.497	9.945	12.279	11.811	10.004	9.218	9.492	10.839	11.687	13.479	12.644	12.996	10.944	13.408	12.835	13.949	11.344	14.257	11.570	10.870	13.043	12.841	11.291	11.947	12.143	10.969	11.232	12.119	11.330	11.237	11.507	11.276	10.968	10.667	15.274	14.213	14.253	11.858	11.242	11.465	11.583	11.757	12.061	12.055	12.192	12.411	12.195	12.135	12.094	12.066	12.232	15.446	17.219	17.598	12.278	12.478	16.583	15.792	15.417	13.376	15.274	18.801	23.798	25.996	25.146	20.661	17.027	13.325	13.657	17.170	16.434	14.112	13.401	12.950	12.891	12.576	12.634	12.653	12.536	15.643	12.300	10.507	10.186	10.188	13.498	21.361	18.025	13.999	13.847	13.651	13.525	13.557	100.000	100.000	100.000	100.000	100.000	100.000	100.000	100.000	100.000	100.000	100.000	100.000	100.000	100.000	100.000	100.000	100.000	100.000	100.000	100.000	100.000	100.000	100.000
10000000000.000	10000000000.000	10000000000.000	10000000000.000	10000000000.000	10000000000.000	10000000000.000	10000000000.000	10000000000.000	10000000000.000	10000000000.000	10000000000.000	10000000000.000	10000000000.000	10000000000.000	10000000000.000	10000000000.000	10000000000.000	10000000000.000	10000000000.000	10000000000.000	10000000000.000	10000000000.000	10000000000.000	10000000000.000	10000000000.000	10000000000.000	10000000000.000	10000000000.000	10000000000.000	10000000000.000	10000000000.000	10000000000.000	6.743	11.326	14.434	8.589	13.544	8.081	6.634	6.590	6.631	6.677	7.226	14.341	7.966	7.348	7.526	8.002	9.739	15.030	14.944	9.382	5.961	5.769	5.726	6.930	6.639	6.676	6.383	5.992	6.023	6.114	6.237	6.284	7.459	8.085	7.343	8.772	7.915	8.032	7.831	6.895	6.738	7.010	7.667	10.609	11.048	12.524	10.068	10.256	9.496	11.177	9.290	9.426	10.159	11.432	10.110	12.600	10.687	10.713	12.963	13.548	11.345	13.868	11.524	10.420	10.969	12.457	10.971	13.401	11.007	15.421	12.018	10.965	12.107	11.152	14.144	10.769	10.580	10.597	10.954	11.831	11.030	10.981	11.231	11.229	11.477	11.551	11.725	11.734	12.829	11.764	11.907	13.174	11.927	11.733	11.855	15.775	24.407	17.912	12.385	15.202	14.882	13.211	12.773	13.113	12.926	18.442	19.753	15.049	17.500	14.651	13.492	16.808	17.786	15.090	15.421	13.856	13.361	12.495	12.329	12.261	12.394	12.722	15.405	11.666	11.286	10.041	10.487	11.194	17.317	13.602	13.749	13.683	13.654	13.459	13.527	100.000	100.000	100.000	100.000	100.000	100.000	100.000	100.000	100.000	100.000	100.000	100.000	100.000	100.000	100.000	100.000	100.000	100.000	100.000	100.000	100.000	100.000	100.000	100.000
10000000000.000	10000000000.000	10000000000.000	10000000000.000	10000000000.000	10000000000.000	10000000000.000	10000000000.000	10000000000.000	10000000000.000	10000000000.000	10000000000.000	10000000000.000	10000000000.000	10000000000.000	10000000000.000	10000000000.000	10000000000.000	10000000000.000	10000000000.000	10000000000.000	10000000000.000	10000000000.000	10000000000.000	10000000000.000	10000000000.000	10000000000.000	10000000000.000	10000000000.000	10000000000.000	10000000000.000	10000000000.000	6.703	6.703	7.106	8.084	11.813	8.215	8.423	6.780	6.461	6.535	6.594	7.392	14.037	9.900	8.941	10.799	8.271	10.059	16.241	15.312	6.612	5.691	5.846	6.145	6.297	6.416	6.379	6.364	6.319	6.289	6.289	6.358	6.416	6.444	6.966	7.132	10.757	7.794	7.802	6.977	6.535	6.733	6.714	7.079	11.864	11.900	10.940	11.598	11.841	11.624	12.862	9.421	9.401	9.450	10.434	11.940	11.546	10.996	10.224	11.943	9.832	9.765	12.085	9.669	9.782	9.871	9.757	10.177	10.295	12.571	12.523	13.580	11.293	11.505	11.223	10.897	10.449	10.497	10.678	10.665	10.598	10.833	10.943	11.315	11.869	11.458	11.346	11.320	11.488	11.447	11.448	11.521	11.917	11.688	11.604	11.611	12.031	15.424	14.504	15.413	14.291	14.867	15.035	16.339	16.147	15.478	11.670	14.830	16.446	15.357	12.853	16.909	16.914	15.186	14.075	13.410	13.219	12.462	12.449	12.229	12.426	16.340	13.207	16.480	10.295	10.135	11.265	18.591	18.343	13.368	13.627	13.776	13.608	13.336	13.446	100.000	100.000	100.000	100.000	100.000	100.000	100.000	100.000	100.000	100.000	100.000	100.000	100.000	100.000	100.000	100.000	100.000	100.000	100.000	100.000	100.000	100.000	100.000	100.000	100.000
10000000000.000	10000000000.000	10000000000.000	10000000000.000	10000000000.000	10000000000.000	10000000000.000	10000000000.000	10000000000.000	10000000000.000	10000000000.000	10000000000.000	10000000000.000	10000000000.000	10000000000.000	10000000000.000	10000000000.000	10000000000.000	10000000000.000	10000000000.000	10000000000.000	10000000000.000	10000000000.000	10000000000.000	10000000000.000	10000000000.000	10000000000.000	10000000000.000	10000000000.000	10000000000.000	10000000000.000	6.469	6.782	6.948	9.410	10.358	11.801	13.615	8.020	11.333	6.754	6.427	6.637	6.926	7.215	7.226	7.321	7.161	8.283	7.832	6.758	6.114	5.784	6.089	6.314	6.404	6.331	6.394	6.512	6.593	6.679	6.666	6.635	6.653	6.804	7.357	7.039	7.219	10.284	6.846	7.827	13.101	11.551	6.880	7.194	6.949	7.741	8.988	10.702	9.429	9.517	10.749	12.233	11.008	9.576	9.345	10.156	10.094	9.719	9.605	9.626	9.721	9.693	9.767	9.674	11.050	10.038	9.944	9.781	10.039	9.770	10.682	10.985	10.718	11.162	10.816	10.979	11.191	10.410	10.432	10.340	10.429	10.640	10.825	11.160	11.045	10.931	11.055	11.101	11.121	11.264	11.503	12.430	11.297	11.337	11.444	11.513	11.453	11.537	11.560	11.911	12.655	18.857	13.275	14.707	14.497	19.040	15.908	11.589	12.551	11.810	11.703	11.667	13.553	14.846	12.829	12.189	12.214	12.216	13.582	16.927	19.650	15.037	11.226	10.651	10.814	10.407	10.525	17.041	19.829	13.641	13.252	13.459	13.466	13.444	13.313	100.000	100.000	100.000	100.000	100.000	100.000	100.000	100.000	100.000	100.000	100.000	100.000	100.000	100.000	100.000	100.000	100.000	100.000	100.000	100.000	100.000	100.000	100.000	100.000	100.000	100.000
10000000000.000	10000000000.000	10000000000.000	10000000000.000	10000000000.000	10000000000.000	10000000000.000	10000000000.000	10000000000.000	10000000000.000	10000000000.000	10000000000.000	10000000000.000	10000000000.000	10000000000.000	10000000000.000	10000000000.000	10000000000.000	10000000000.000	10000000000.000	10000000000.000	10000000000.000	10000000000.000	10000000000.000	10000000000.000	10000000000.000	10000000000.000	10000000000.000	10000000000.000	10000000000.000	6.524	6.408	8.032	7.243	9.591	7.330	6.676	8.681	13.460	7.679	7.773	6.707	6.667	6.782	6.851	6.854	7.170	7.958	7.557	7.623	5.737	5.642	6.050	6.181	6.189	6.327	6.453	6.540	6.560	6.619	7.151	6.959	7.039	7.122	7.170	7.222	7.240	6.842	7.012	6.864	8.514	7.825	10.497	8.874	8.742	7.350	7.403	8.313	15.951	12.878	11.128	11.325	12.313	11.961	11.038	10.104	16.660	17.571	10.911	9.490	9.986	10.494	10.273	10.171	10.124	11.906	11.402	11.793	12.182	9.775	9.681	9.758	12.141	10.698	14.475	13.732	10.813	11.085	12.722	10.271	10.290	10.607	11.060	11.468	14.926	17.777	11.168	10.772	10.829	10.769	10.923	11.167	11.192	11.343	11.263	11.325	11.410	11.569	11.468	11.546	11.591	11.950	14.040	18.187	20.662	16.043	17.286	13.450	16.560	11.623	11.150	11.377	11.900	12.687	14.411	12.990	12.654	16.498	12.802	11.788	11.480	11.015	10.034	10.043	10.084	11.168	18.800	18.580	13.092	13.994	13.607	13.428	13.320	13.323	13.176	100.000	100.000	100.000	100.000	100.000	100.000	100.000	100.000	100.000	100.000	100.000	100.000	100.000	100.000	100.000	100.000	100.000	100.000	100.000	100.000	100.000	100.000	100.000	100.000	100.000	100.000	100.000
10000000000.000	10000000000.000	10000000000.000	10000000000.000	10000000000.000	10000000000.000	10000000000.000	10000000000.000	10000000000.000	10000000000.000	10000000000.000	10000000000.000	10000000000.000	10000000000.000	10000000000.000	10000000000.000	10000000000.000	10000000000.000	10000000000.000	10000000000.000	10000000000.000	10000000000.000	10000000000.000	10000000000.000	10000000000.000	10000000000.000	10000000000.000	10000000000.000	10000000000.000	6.495	6.377	6.488	7.155	7.837	8.031	6.242	6.358	6.575	11.221	11.752	8.249	7.009	6.689	6.800	6.928	7.130	7.691	7.551	7.635	6.108	5.821	5.908	6.276	6.414	6.473	6.512	6.628	6.749	6.625	6.802	7.298	7.065	7.160	7.375	7.317	7.584	7.582	7.307	10.998	8.213	7.360	8.098	7.298	10.027	9.882	7.534	7.535	8.141	9.892	16.730	11.506	9.502	11.589	12.190	11.181	12.006	11.658	14.179	17.061	9.672	11.940	10.468	9.926	13.282	10.292	12.535	11.150	12.815	11.264	10.840	10.768	9.665	9.709	10.466	13.072	14.646	11.037	12.964	12.859	10.552	10.560	12.478	16.831	12.545	13.474	11.718	13.443	10.848	11.170	10.728	10.792	11.170	12.097	11.965	11.282	11.242	11.357	11.541	11.544	11.498	11.450	11.457	14.903	19.377	21.371	17.256	15.762	12.090	11.645	12.338	13.505	12.930	18.159	17.421	17.461	14.576	11.729	10.333	9.904	9.884	9.666	9.976	10.714	10.829	17.167	17.712	17.381	17.981	15.858	17.567	13.480	13.396	13.280	13.169	100.000	100.000	100.000	100.000	100.000	100.000	100.000	100.000	100.000	100.000	100.000	100.000	100.000	100.000	100.000	100.000	100.000	100.000	100.000	100.000	100.000	100.000	100.000	100.000	100.000	100.000	100.000	100.000
10000000000.000	10000000000.000	10000000000.000	10000000000.000	10000000000.000	10000000000.000	10000000000.000	10000000000.000	10000000000.000	10000000000.000	10000000000.000	10000000000.000	10000000000.000	10000000000.000	10000000000.000	10000000000.000	10000000000.000	10000000000.000	10000000000.000	10000000000.000	10000000000.000	10000000000.000	10000000000.000	10000000000.000	10000000000.000	10000000000.000	10000000000.000	10000000000.000	6.223	7.136	6.707	8.956	8.817	6.451	6.338	6.228	6.774	11.272	11.543	13.218	12.756	7.594	7.054	6.933	6.911	7.096	7.609	7.714	6.362	6.087	6.098	6.896	6.742	8.566	9.158	9.410	9.809	14.828	9.117	9.980	8.174	7.988	7.389	10.091	15.879	8.055	13.028	8.649	13.654	13.380	8.383	7.646	7.322	7.231	7.196	7.986	7.396	8.438	8.457	8.599	8.523	12.342	9.750	10.486	10.996	13.253	10.136	13.044	10.215	9.530	10.431	11.404	10.157	13.555	10.506	12.400	10.996	13.894	10.683	12.543	12.032	12.584	9.823	9.570	12.108	10.976	11.193	12.806	10.585	12.042	11.673	21.402	14.386	10.808	10.624	10.406	17.697	10.603	10.705	10.731	10.816	11.050	11.159	11.222	11.145	11.287	11.220	11.524	11.364	11.264	11.285	11.922	14.559	18.172	18.574	13.034	12.025	14.642	18.062	15.868	16.472	15.250	18.866	14.259	15.432	9.964	9.701	9.596	9.611	10.082	13.892	15.657	18.179	18.211	16.164	14.535	14.072	20.439	16.759	13.385	13.124	12.866	12.822	100.000	100.000	100.000	100.000	100.000	100.000	100.000	100.000	100.000	100.000	100.000	100.000	100.000	100.000	100.000	100.000	100.000	100.000	100.000	100.000	100.000	100.000	100.000	100.000	100.000	100.000	100.000	100.000	100.000
10000000000.000	10000000000.000	10000000000.000	10000000000.000	10000000000.000	10000000000.000	10000000000.000	10000000000.000	10000000000.000	10000000000.000	10000000000.000	10000000000.000	10000000000.000	10000000000.000	10000000000.000	10000000000.000	10000000000.000	10000000000.000	10000000000.000	10000000000.000	10000000000.000	10000000000.000	10000000000.000	10000000000.000	10000000000.000	10000000000.000	10000000000.000	6.615	6.599	9.333	13.270	7.283	9.308	6.561	6.236	6.629	7.273	7.815	7.210	7.360	13.309	11.213	11.141	11.722	7.097	8.477	7.705	6.551	6.307	6.287	7.477	23.790	16.567	20.758	26.476	26.161	28.294	26.718	20.695	23.998	27.636	18.468	9.321	17.675	22.876	27.420	23.462	18.167	25.348	29.991	16.501	12.624	8.335	7.373	7.508	12.302	7.471	7.498	7.573	7.503	9.819	14.579	10.039	11.586	11.035	12.769	9.931	9.845	9.958	9.489	10.093	11.973	9.974	10.375	13.949	10.417	12.125	11.745	10.239	12.315	11.475	11.778	10.171	9.888	10.841	10.921	10.314	12.959	11.821	10.537	10.717	11.168	14.824	10.640	10.221	13.580	12.996	11.715	10.823	10.852	10.672	10.804	11.390	11.757	11.246	11.162	11.366	11.365	11.199	11.239	11.691	16.610	18.644	16.640	12.303	13.784	12.364	14.781	14.524	17.731	15.682	12.094	9.974	9.699	9.550	9.830	13.051	12.336	13.203	18.003	15.324	13.175	17.324	14.118	18.469	21.629	23.086	14.847	13.203	12.740	12.511	12.418	100.000	100.000	100.000	100.000	100.000	100.000	100.000	100.000	100.000	100.000	100.000	100.000	100.000	100.000	100.000	100.000	100.000	100.000	100.000	100.000	100.000	100.000	100.000	100.000	100.000	100.000	100.000	100.000	100.000	100.000
10000000000.000	10000000000.000	10000000000.000	10000000000.000	10000000000.000	10000000000.000	10000000000.000	10000000000.000	10000000000.000	10000000000.000	10000000000.000	10000000000.000	10000000000.000	10000000000.000	10000000000.000	10000000000.000	10000000000.000	10000000000.000	10000000000.000	10000000000.000	10000000000.000	10000000000.000	10000000000.000	10000000000.000	10000000000.000	10000000000.000	8.189	6.081	11.483	9.839	6.747	7.316	6.481	6.906	6.935	10.985	7.457	9.036	7.707	7.070	8.427	14.177	15.212	10.941	7.514	7.717	6.947	6.452	10.126	8.255	9.245	22.235	25.113	26.811	26.276	25.699	20.145	20.351	23.729	22.828	25.641	17.548	6.987	13.214	19.186	16.633	9.785	19.588	24.742	29.536	30.123	29.518	11.806	7.953	8.398	10.257	7.632	7.408	7.620	7.560	7.531	7.770	16.216	10.656	10.823	11.260	11.099	11.473	11.634	9.578	9.908	10.241	12.154	10.530	10.755	13.603	14.023	12.560	10.318	10.414	10.916	12.511	11.339	11.833	9.588	11.901	11.942	10.113	12.845	11.871	13.670	11.797	16.079	11.373	13.635	10.750	10.833	15.175	17.201	10.936	10.694	10.689	10.715	10.822	11.092	11.281	11.020	11.242	12.218	11.518	16.317	19.418	12.925	13.103	20.055	22.676	15.192	17.067	15.379	10.698	9.161	9.194	9.354	9.770	11.250	12.669	12.000	13.162	12.656	12.976	12.868	12.492	12.970	14.241	24.491	17.286	13.552	13.156	12.569	12.273	12.630	100.000	100.000	100.000	100.000	100.000	100.000	100.000	100.000	100.000	100.000	100.000	100.000	100.000	100.000	100.000	100.000	100.000	100.000	100.000	100.000	100.000	100.000	100.000	100.000	100.000	100.000	100.000	100.000	100.000	100.000	100.000
10000000000.000	10000000000.000	10000000000.000	10000000000.000	10000000000.000	10000000000.000	10000000000.000	10000000000.000	10000000000.000	10000000000.000	10000000000.000	10000000000.000	10000000000.000	10000000000.000	10000000000.000	10000000000.000	10000000000.000	10000000000.000	10000000000.000	10000000000.000	10000000000.000	10000000000.000	10000000000.000	10000000000.000	10000000000.000	7.847	6.020	10.468	9.153	7.725	6.265	6.797	6.722	10.142	11.516	7.609	6.913	10.223	7.304	7.298	11.975	18.107	15.250	12.482	8.173	7.663	6.364	6.255	9.175	12.896	8.833	10.482	10.126	16.379	19.201	13.350	10.026	14.417	20.396	19.904	12.487	8.456	7.310	6.559	7.441	7.721	8.238	10.193	9.949	17.970	27.875	27.278	17.255	11.420	26.977	8.828	7.575	7.362	7.426	7.510	7.468	7.510	7.559	9.479	12.336	11.920	12.100	10.970	9.916	9.611	9.503	9.405	12.298	9.720	12.176	10.030	11.020	11.390	10.675	12.646	11.063	11.343	12.536	10.069	9.384	9.551	9.688	10.090	11.737	11.101	11.386	11.628	17.107	14.867	10.695	10.703	10.993	14.048	16.113	11.196	10.600	10.739	10.917	11.317	11.461	11.061	11.013	10.898	11.439	11.785	18.123	12.340	11.685	16.046	19.480	23.708	11.308	9.795	9.250	9.085	9.267	10.037	12.224	11.597	23.269	21.490	12.323	12.300	12.232	12.141	12.473	12.990	19.320	22.486	14.022	13.359	13.097	12.924	12.592	13.194	100.000	100.000	100.000	100.000	100.000	100.000	100.000	100.000	100.000	100.000	100.000	100.000	100.000	100.000	100.000	100.000	100.000	100.000	100.000	100.000	100.000	100.000	100.000	100.000	100.000	100.000	100.000	100.000	100.000	100.000	100.000	100.000
10000000000.000	10000000000.000	10000000000.000	10000000000.000	10000000000.000	10000000000.000	10000000000.000	10000000000.000	10000000000.000	10000000000.000	10000000000.000	10000000000.000	10000000000.000	10000000000.000	10000000000.000	10000000000.000	10000000000.000	10000000000.000	10000000000.000	10000000000.000	10000000000.000	10000000000.000	10000000000.000	10000000000.000	7.342	7.227	8.295	5.707	6.024	6.193	6.370	9.883	6.933	6.785	8.047	7.907	7.694	9.748	9.390	11.135	18.508	12.411	13.686	7.928	8.656	6.944	6.105	6.311	6.926	8.852	13.061	10.436	8.549	7.117	8.223	8.745	7.608	6.234	6.899	6.072	5.396	5.455	5.565	5.417	5.441	5.475	5.579	6.022	6.407	7.081	8.347	8.528	11.750	14.653	21.510	14.504	8.274	7.662	7.504	7.349	7.376	7.346	7.242	8.231	11.612	10.540	11.328	10.860	11.195	13.527	9.109	9.271	9.774	9.775	12.027	9.868	10.521	10.497	12.727	10.120	10.223	12.011	10.085	12.195	9.455	9.533	9.744	13.294	10.837	13.194	10.675	10.800	13.175	11.833	12.558	16.604	19.702	20.860	18.599	11.689	11.005	10.932	10.826	11.152	11.104	11.031	10.756	10.888	11.118	12.238	14.271	10.340	17.084	19.114	12.711	13.103	10.150	8.900	9.082	9.412	9.666	10.430	11.418	12.296	15.146	21.553	14.912	16.558	16.540	13.552	19.125	17.364	13.326	13.201	12.908	12.783	12.876	13.023	13.376	100.000	100.000	100.000	100.000	100.000	100.000	100.000	100.000	100.000	100.000	100.000	100.000	100.000	100.000	100.000	100.000	100.000	100.000	100.000	100.000	100.000	100.000	100.000	100.000	100.000	100.000	100.000	100.000	100.000	100.000	100.000	100.000	100.000
10000000000.000	10000000000.000	10000000000.000	10000000000.000	10000000000.000	10000000000.000	10000000000.000	10000000000.000	10000000000.000	10000000000.000	10000000000.000	10000000000.000	10000000000.000	10000000000.000	10000000000.000	10000000000.000	10000000000.000	10000000000.000	10000000000.000	10000000000.000	10000000000.000	10000000000.000	10000000000.000	8.108	6.376	8.377	8.144	6.916	6.176	9.368	13.924	6.836	11.517	7.458	7.361	10.083	7.354	8.773	12.404	16.206	13.565	15.076	11.285	8.590	12.385	6.289	6.051	7.974	11.478	11.944	7.381	7.262	10.611	10.355	7.410	5.072	5.052	5.065	5.060	5.261	5.252	5.243	5.242	5.436	5.268	5.363	5.356	5.442	5.519	5.496	5.545	5.794	6.003	6.097	10.059	11.841	10.701	8.435	8.236	7.794	7.500	7.385	7.278	7.720	8.428	9.755	12.297	13.345	12.515	9.125	8.809	9.881	10.111	12.727	9.916	11.281	9.811	10.373	13.103	13.192	12.942	10.786	10.365	9.886	9.508	9.526	9.374	9.651	10.657	11.314	13.653	14.387	13.004	12.469	12.980	13.284	18.337	18.689	23.052	11.066	10.794	10.814	10.938	11.048	24.850	11.225	11.305	11.050	11.979	11.575	11.378	11.743	11.660	11.662	17.332	13.333	9.853	9.183	9.371	9.801	10.839	11.506	12.242	13.465	13.450	13.496	13.083	13.992	22.801	25.422	16.704	12.908	12.385	12.469	12.462	12.696	13.570	12.854	100.000	100.000	100.000	100.000	100.000	100.000	100.000	100.000	100.000	100.000	100.000	100.000	100.000	100.000	100.000	100.000	100.000	100.000	100.000	100.000	100.000	100.000	100.000	100.000	100.000	100.000	100.000	100.000	100.000	100.000	100.000	100.000	100.000	100.000
10000000000.000	10000000000.000	10000000000.000	10000000000.000	10000000000.000	10000000000.000	10000000000.000	10000000000.000	10000000000.000	10000000000.000	10000000000.000	10000000000.000	10000000000.000	10000000000.000	10000000000.000	10000000000.000	10000000000.000	10000000000.000	10000000000.000	10000000000.000	10000000000.000	10000000000.000	9.252	7.991	6.256	6.315	6.670	6.400	13.969	14.094	14.728	7.307	7.528	6.715	9.797	7.656	7.503	11.776	11.767	7.470	15.291	13.616	9.433	8.783	12.698	6.246	6.846	9.810	7.838	8.530	7.251	8.645	7.028	5.762	4.981	4.865	4.918	5.134	5.166	5.267	6.293	7.472	7.998	8.810	6.810	6.200	5.917	5.675	5.622	5.546	5.540	5.650	5.524	5.621	5.932	6.504	10.411	11.462	9.843	8.484	7.911	7.696	7.662	7.632	7.857	8.708	16.207	9.639	10.973	9.976	9.365	13.942	10.666	12.346	11.878	9.931	10.463	13.125	10.709	13.350	11.352	12.515	11.536	9.415	10.031	10.408	12.548	12.175	9.738	10.061	15.369	10.249	13.127	11.647	11.172	13.474	17.365	23.661	12.114	13.064	10.809	10.915	10.921	10.960	10.312	13.700	12.726	11.755	11.442	11.562	11.766	10.946	10.685	13.830	11.691	9.166	9.036	9.532	9.872	11.100	11.626	11.930	12.275	12.376	12.225	12.079	12.171	12.463	13.080	13.332	12.580	12.555	12.281	11.948	12.919	12.596	12.326	100.000	100.000	100.000	100.000	100.000	100.000	100.000	100.000	100.000	100.000	100.000	100.000	100.000	100.000	100.000	100.000	100.000	100.000	100.000	100.000	100.000	100.000	100.000	100.000	100.000	100.000	100.000	100.000	100.000	100.000	100.000	100.000	100.000	100.000	100.000
10000000000.000	10000000000.000	10000000000.000	10000000000.000	10000000000.000	10000000000.000	10000000000.000	10000000000.000	10000000000.000	10000000000.000	10000000000.000	10000000000.000	10000000000.000	10000000000.000	10000000000.000	10000000000.000	10000000000.000	10000000000.000	10000000000.000	10000000000.000	10000000000.000	7.196	7.802	6.705	5.551	5.894	6.183	6.736	10.920	8.239	10.060	6.371	6.330	7.680	9.028	9.314	15.593	13.408	11.057	8.718	12.917	16.253	8.850	8.776	14.748	6.566	10.328	10.936	7.442	11.351	7.456	6.402	5.358	4.826	4.918	5.092	5.070	5.145	5.276	5.951	12.124	18.471	23.267	24.461	19.863	10.775	8.739	8.453	7.615	6.661	6.094	6.401	5.874	5.816	5.782	5.716	6.339	6.968	8.838	12.088	10.952	7.955	7.898	7.878	8.062	8.381	9.901	11.808	10.302	9.414	11.925	12.733	10.485	10.656	9.614	9.598	13.802	10.767	14.022	11.828	11.702	13.556	9.625	11.524	11.483	13.604	13.474	9.886	9.484	9.710	12.053	12.222	10.596	11.296	11.942	11.281	10.646	12.144	10.841	10.634	11.200	11.083	11.089	10.954	10.692	11.446	11.576	11.801	11.348	14.980	14.317	11.142	12.390	9.645	9.063	8.903	9.610	9.841	11.119	11.850	11.980	12.004	12.071	12.061	11.758	11.872	11.954	12.121	12.352	12.326	12.407	12.514	12.942	13.221	12.658	12.469	100.000	100.000	100.000	100.000	100.000	100.000	100.000	100.000	100.000	100.000	100.000	100.000	100.000	100.000	100.000	100.000	100.000	100.000	100.000	100.000	100.000	100.000	100.000	100.000	100.000	100.000	100.000	100.000	100.000	100.000	100.000	100.000	100.000	100.000	100.000	100.000
10000000000.000	10000000000.000	10000000000.000	10000000000.000	10000000000.000	10000000000.000	10000000000.000	10000000000.000	10000000000.000	10000000000.000	10000000000.000	10000000000.000	10000000000.000	10000000000.000	10000000000.000	10000000000.000	10000000000.000	10000000000.000	10000000000.000	10000000000.000	5.537	5.546	6.384	8.538	6.149	5.992	6.946	14.877	7.363	10.044	8.830	6.336	6.405	9.853	9.120	15.094	11.056	12.584	11.236	15.189	13.464	14.622	10.840	14.448	13.008	7.379	12.360	8.417	8.898	6.107	6.368	4.904	4.710	4.984	5.009	5.056	5.166	5.309	5.887	11.309	20.361	24.436	23.339	26.903	22.343	26.835	13.017	10.192	8.189	8.545	7.922	10.340	6.481	6.071	5.934	5.900	5.774	5.809	6.023	7.006	12.926	11.781	9.266	8.275	8.014	8.569	14.559	18.204	12.418	12.139	13.907	9.677	11.237	9.942	9.911	9.721	12.704	11.068	10.791	16.759	16.328	12.375	10.844	9.670	12.136	10.127	10.417	12.197	10.050	11.239	10.207	9.971	10.079	9.775	10.304	10.538	10.000	10.169	13.819	13.791	11.133	11.550	11.197	10.874	10.559	10.955	12.114	11.528	12.217	11.446	11.146	12.679	9.803	8.906	8.792	9.042	9.619	11.217	11.889	11.886	12.194	11.820	11.881	11.930	11.866	11.894	11.884	12.176	12.299	12.346	12.334	12.867	12.978	12.751	12.630	100.000	100.000	100.000	100.000	100.000	100.000	100.000	100.000	100.000	100.000	100.000	100.000	100.000	100.000	100.000	100.000	100.000	100.000	100.000	100.000	100.000	100.000	100.000	100.000	100.000	100.000	100.000	100.000	100.000	100.000	100.000	100.000	100.000	100.000	100.000	100.000	100.000
10000000000.000	10000000000.000	10000000000.000	10000000000.000	10000000000.000	10000000000.000	10000000000.000	10000000000.000	10000000000.000	10000000000.000	10000000000.000	10000000000.000	10000000000.000	10000000000.000	10000000000.000	10000000000.000	10000000000.000	10000000000.000	10000000000.000	6.723	5.619	5.507	5.597	6.195	5.940	6.714	11.391	7.135	6.801	7.034	8.320	9.586	6.534	9.412	14.350	9.515	14.307	17.664	16.481	26.077	15.020	9.415	15.566	15.285	17.129	8.800	8.707	8.908	5.394	5.592	4.725	4.716	4.855	4.851	5.083	5.488	6.343	6.584	7.435	10.075	20.745	8.334	9.979	17.630	19.776	26.209	11.213	7.702	8.555	7.744	8.269	8.408	7.835	8.150	6.947	6.504	6.267	5.911	5.992	5.595	6.412	12.325	18.172	11.712	8.013	10.180	18.242	18.698	9.243	14.890	12.267	11.988	9.464	9.637	10.197	9.680	9.280	9.932	10.217	10.081	10.859	9.511	9.535	11.825	12.134	11.603	11.360	10.470	13.184	13.251	10.767	11.315	11.101	10.758	11.405	12.189	11.428	10.890	11.256	14.868	11.267	22.290	12.124	11.023	12.924	11.975	11.753	11.413	13.573	12.403	10.558	12.905	9.933	8.660	8.979	9.799	10.825	11.598	11.683	11.840	11.870	11.897	11.782	11.829	11.790	11.763	11.963	12.080	12.035	12.108	12.985	12.633	12.490	12.443	100.000	100.000	100.000	100.000	100.000	100.000	100.000	100.000	100.000	100.000	100.000	100.000	100.000	100.000	100.000	100.000	100.000	100.000	100.000	100.000	100.000	100.000	100.000	100.000	100.000	100.000	100.000	100.000	100.000	100.000	100.000	100.000	100.000	100.000	100.000	100.000	100.000	100.000
10000000000.000	10000000000.000	10000000000.000	10000000000.000	10000000000.000	10000000000.000	10000000000.000	10000000000.000	10000000000.000	10000000000.000	10000000000.000	10000000000.000	10000000000.000	10000000000.000	10000000000.000	10000000000.000	10000000000.000	10000000000.000	7.847	8.116	5.919	5.517	5.735	7.780	6.856	10.231	6.520	9.168	6.335	7.170	8.612	8.454	8.295	12.760	12.336	13.550	22.448	20.241	20.440	17.850	17.594	9.474	17.517	20.099	20.349	9.149	6.470	5.215	4.572	4.632	4.734	4.733	4.909	5.478	6.318	6.960	7.379	9.083	7.067	7.276	7.673	7.719	7.008	7.821	8.212	8.696	7.190	7.630	14.892	10.289	16.063	20.714	20.169	11.095	13.948	11.800	9.004	13.425	7.052	6.200	5.877	6.538	8.703	10.488	9.313	18.147	21.375	9.923	8.943	8.785	9.885	15.342	9.370	12.608	11.765	9.418	9.537	9.822	14.939	14.634	10.212	9.376	10.047	12.190	9.787	10.943	11.284	10.746	9.730	11.410	13.382	11.600	11.753	12.181	11.373	11.544	10.241	10.196	12.781	11.379	13.502	12.035	11.272	11.138	11.913	11.449	11.084	11.148	12.237	12.647	11.053	13.237	8.873	8.683	9.364	10.097	11.257	11.449	11.664	11.717	11.692	11.747	11.697	11.707	11.767	11.844	11.905	11.869	12.243	12.668	12.324	12.088	12.214	100.000	100.000	100.000	100.000	100.000	100.000	100.000	100.000	100.000	100.000	100.000	100.000	100.000	100.000	100.000	100.000	100.000	100.000	100.000	100.000	100.000	100.000	100.000	100.000	100.000	100.000	100.000	100.000	100.000	100.000	100.000	100.000	100.000	100.000	100.000	100.000	100.000	100.000	100.000
10000000000.000	10000000000.000	10000000000.000	10000000000.000	10000000000.000	10000000000.000	10000000000.000	10000000000.000	10000000000.000	10000000000.000	10000000000.000	10000000000.000	10000000000.000	10000000000.000	10000000000.000	10000000000.000	10000000000.000	7.438	6.139	5.659	6.179	5.975	5.921	5.805	5.829	9.115	9.517	8.524	6.489	7.697	9.241	8.832	12.962	11.938	13.799	19.222	14.652	20.171	21.823	10.004	9.531	11.531	13.594	13.987	12.141	7.951	5.436	4.679	4.574	4.581	4.545	4.951	7.564	16.141	7.981	8.354	6.946	7.030	7.473	7.598	6.983	7.086	7.183	6.916	7.148	7.183	7.073	7.351	8.907	23.065	16.003	23.850	25.243	21.200	22.471	17.523	13.989	13.840	10.692	11.271	6.473	6.026	6.128	7.110	12.036	20.002	8.904	21.929	8.932	8.430	8.525	9.007	12.316	11.095	9.958	10.004	11.194	13.043	10.679	9.827	14.608	9.179	9.548	9.833	11.415	12.432	12.285	11.009	17.460	12.865	13.725	11.726	11.255	10.324	13.166	13.614	10.470	10.447	10.429	11.043	14.160	14.412	12.203	12.002	11.337	11.037	10.877	11.135	15.973	11.079	12.732	9.714	8.682	8.926	9.523	10.759	11.266	11.523	11.507	11.737	11.568	11.519	11.504	11.576	11.735	11.722	11.789	12.617	12.301	11.990	11.814	12.125	100.000	100.000	100.000	100.000	100.000	100.000	100.000	100.000	100.000	100.000	100.000	100.000	100.000	100.000	100.000	100.000	100.000	100.000	100.000	100.000	100.000	100.000	100.000	100.000	100.000	100.000	100.000	100.000	100.000	100.000	100.000	100.000	100.000	100.000	100.000	100.000	100.000	100.000	100.000	100.000
10000000000.000	10000000000.000	10000000000.000	10000000000.000	10000000000.000	10000000000.000	10000000000.000	10000000000.000	10000000000.000	10000000000.000	10000000000.000	10000000000.000	10000000000.000	10000000000.000	10000000000.000	10000000000.000	11.941	8.402	6.099	6.118	8.229	5.565	6.016	5.931	6.018	6.779	6.551	8.738	8.295	6.642	7.272	7.926	7.066	11.886	17.209	18.209	12.474	20.600	21.824	12.756	11.103	13.233	18.888	10.099	13.519	14.378	4.696	4.500	4.462	4.459	4.676	6.109	13.703	19.521	9.756	6.887	7.672	8.001	7.915	7.452	6.715	6.644	6.896	6.836	6.982	7.464	7.189	7.075	7.741	8.313	9.665	16.683	19.022	20.515	10.255	25.805	27.759	24.606	24.293	17.341	13.351	6.796	6.360	5.849	6.004	10.692	11.803	9.596	8.492	8.404	8.421	8.487	8.948	11.452	10.668	14.088	10.057	12.799	9.935	14.646	13.123	9.843	9.165	11.011	11.089	11.049	9.643	9.980	16.751	10.549	10.916	12.360	12.821	13.449	10.170	13.295	11.111	13.126	10.700	10.893	15.454	11.992	11.808	11.670	11.005	12.318	10.785	11.930	16.405	11.161	11.878	8.771	8.592	9.228	10.198	10.988	11.353	11.545	11.565	11.471	11.508	11.361	11.465	11.508	11.563	11.672	12.601	11.848	11.762	11.616	11.701	100.000	100.000	100.000	100.000	100.000	100.000	100.000	100.000	100.000	100.000	100.000	100.000	100.000	100.000	100.000	100.000	100.000	100.000	100.000	100.000	100.000	100.000	100.000	100.000	100.000	100.000	100.000	100.000	100.000	100.000	100.000	100.000	100.000	100.000	100.000	100.000	100.000	100.000	100.000	100.000	100.000
10000000000.000	10000000000.000	10000000000.000	10000000000.000	10000000000.000	10000000000.000	10000000000.000	10000000000.000	10000000000.000	10000000000.000	10000000000.000	10000000000.000	10000000000.000	10000000000.000	10000000000.000	8.814	7.982	6.509	6.608	5.479	5.576	5.709	5.718	8.427	5.878	6.073	6.049	6.718	7.592	9.590	7.277	10.645	6.910	9.728	14.739	16.129	11.230	16.708	13.840	9.485	10.212	11.960	20.862	18.575	10.320	6.183	4.550	4.440	4.552	4.567	5.289	6.064	17.984	16.873	10.025	6.727	9.614	8.497	6.979	6.630	6.514	6.651	6.706	6.671	6.921	8.151	8.841	8.471	7.082	6.870	6.881	7.386	8.004	8.280	9.301	13.207	13.003	10.794	28.738	24.553	25.719	16.209	8.389	6.337	5.964	6.655	11.446	9.395	10.420	10.956	9.275	8.468	8.515	9.543	26.532	19.465	10.037	9.627	14.343	16.545	10.054	9.500	9.589	9.463	10.926	11.360	13.088	10.111	10.733	10.344	12.000	11.215	10.204	11.294	10.671	11.441	10.399	11.318	11.895	14.366	11.366	11.114	11.096	11.114	10.907	10.771	10.686	11.878	12.786	11.988	9.551	8.648	8.643	9.331	10.628	11.123	11.796	15.978	11.300	11.093	11.198	11.184	11.445	11.305	11.579	12.477	11.565	11.452	11.450	11.464	100.000	100.000	100.000	100.000	100.000	100.000	100.000	100.000	100.000	100.000	100.000	100.000	100.000	100.000	100.000	100.000	100.000	100.000	100.000	100.000	100.000	100.000	100.000	100.000	100.000	100.000	100.000	100.000	100.000	100.000	100.000	100.000	100.000	100.000	100.000	100.000	100.000	100.000	100.000	100.000	100.000	100.000
10000000000.000	10000000000.000	10000000000.000	10000000000.000	10000000000.000	10000000000.000	10000000000.000	10000000000.000	10000000000.000	10000000000.000	10000000000.000	10000000000.000	10000000000.000	10000000000.000	6.790	10.251	6.721	9.353	5.397	7.270	5.659	9.493	6.400	6.150	6.080	6.477	6.300	10.281	6.834	6.988	9.892	9.652	7.453	9.123	7.962	7.705	12.081	19.526	7.624	9.903	8.532	20.063	18.643	9.617	10.655	4.937	4.380	4.401	4.363	4.717	5.284	6.571	7.351	7.037	7.394	8.275	6.933	6.470	6.396	6.543	6.648	6.811	6.833	6.985	7.028	7.996	8.366	8.495	8.298	8.187	7.654	7.264	7.062	7.156	7.254	8.282	8.610	9.399	17.253	13.105	14.353	18.296	19.378	7.076	7.172	5.999	6.376	13.240	19.451	28.361	27.891	9.458	8.588	9.082	16.208	17.507	10.224	11.116	13.544	11.112	12.745	10.272	11.141	9.692	10.098	10.545	12.020	9.863	12.065	11.976	10.159	9.673	10.474	10.298	11.902	14.080	11.828	15.184	14.736	10.586	10.504	10.722	10.765	11.385	11.295	14.340	10.737	11.065	11.811	9.691	8.950	8.477	9.027	10.142	10.645	11.196	11.803	11.804	12.905	11.028	11.056	11.134	11.373	11.308	12.486	11.392	11.070	11.379	11.585	100.000	100.000	100.000	100.000	100.000	100.000	100.000	100.000	100.000	100.000	100.000	100.000	100.000	100.000	100.000	100.000	100.000	100.000	100.000	100.000	100.000	100.000	100.000	100.000	100.000	100.000	100.000	100.000	100.000	100.000	100.000	100.000	100.000	100.000	100.000	100.000	100.000	100.000	100.000	100.000	100.000	100.000	100.000
10000000000.000	10000000000.000	10000000000.000	10000000000.000	10000000000.000	10000000000.000	10000000000.000	10000000000.000	10000000000.000	10000000000.000	10000000000.000	10000000000.000	10000000000.000	14.692	7.663	5.700	6.568	7.115	5.812	5.660	7.130	6.020	6.910	9.655	10.486	14.726	6.898	6.417	6.611	7.337	13.397	11.555	7.802	7.355	7.475	10.450	8.809	9.258	6.647	6.848	13.757	17.005	14.985	8.467	5.813	4.537	4.317	4.340	4.360	4.937	6.038	6.574	6.879	6.777	7.036	6.773	6.200	6.267	6.419	7.222	7.867	8.203	7.984	8.366	8.174	7.712	8.566	9.511	7.988	8.221	7.955	7.289	8.227	8.120	7.953	8.704	9.922	10.371	10.267	8.823	8.908	12.229	19.850	10.514	7.650	7.019	5.893	6.355	14.596	25.772	29.079	19.760	9.491	8.788	9.533	10.474	17.120	20.776	15.126	11.860	11.865	11.282	10.965	10.898	11.675	10.416	10.077	9.570	10.624	10.063	10.415	10.538	13.326	10.719	10.729	15.341	15.596	11.360	10.436	10.353	10.427	10.622	10.745	10.948	11.174	10.848	10.735	13.449	12.889	9.988	9.014	8.830	9.704	10.298	10.636	11.044	11.738	13.299	14.683	10.786	10.863	11.095	11.033	12.393	11.149	11.148	11.227	11.574	100.000	100.000	100.000	100.000	100.000	100.000	100.000	100.000	100.000	100.000	100.000	100.000	100.000	100.000	100.000	100.000	100.000	100.000	100.000	100.000	100.000	100.000	100.000	100.000	100.000	100.000	100.000	100.000	100.000	100.000	100.000	100.000	100.000	100.000	100.000	100.000	100.000	100.000	100.000	100.000	100.000	100.000	100.000	100.000
10000000000.000	10000000000.000	10000000000.000	10000000000.000	10000000000.000	10000000000.000	10000000000.000	10000000000.000	10000000000.000	10000000000.000	10000000000.000	10000000000.000	5.986	6.860	5.617	5.241	5.383	6.496	9.307	6.483	6.181	6.092	6.639	9.392	16.556	23.259	13.724	7.409	6.586	11.219	9.604	11.468	7.380	15.495	7.978	9.302	7.949	8.798	13.130	11.585	14.615	21.622	13.716	8.211	5.435	4.374	4.199	4.184	4.607	5.753	6.544	6.506	6.862	7.679	6.875	5.966	5.987	6.200	7.460	7.409	8.082	8.256	7.867	7.978	8.063	8.237	8.570	8.571	8.158	8.194	8.336	7.049	7.650	9.892	9.398	10.693	12.468	11.496	10.099	8.793	8.437	12.349	16.090	29.103	12.589	9.259	6.522	6.075	8.411	15.594	29.871	30.092	10.346	8.827	8.976	8.803	9.554	16.387	14.513	18.106	16.968	13.184	10.606	11.880	13.022	12.637	10.533	11.134	13.202	10.113	9.765	13.503	10.973	12.888	16.372	12.730	9.959	10.136	10.219	10.324	10.421	10.633	10.722	10.945	12.101	11.206	10.689	13.387	14.218	9.187	10.459	11.064	9.975	10.445	10.565	11.023	11.633	11.214	10.997	10.702	10.702	10.843	11.767	11.201	11.196	11.353	11.379	100.000	100.000	100.000	100.000	100.000	100.000	100.000	100.000	100.000	100.000	100.000	100.000	100.000	100.000	100.000	100.000	100.000	100.000	100.000	100.000	100.000	100.000	100.000	100.000	100.000	100.000	100.000	100.000	100.000	100.000	100.000	100.000	100.000	100.000	100.000	100.000	100.000	100.000	100.000	100.000	100.000	100.000	100.000	100.000	100.000
10000000000.000	10000000000.000	10000000000.000	10000000000.000	10000000000.000	10000000000.000	10000000000.000	10000000000.000	10000000000.000	10000000000.000	10000000000.000	10000000000.000	8.602	8.418	6.232	5.936	5.351	6.451	6.037	7.470	6.928	7.567	13.453	11.866	13.756	24.094	25.968	11.740	6.702	7.236	12.089	7.559	7.160	8.284	10.745	16.630	12.552	15.848	18.119	12.006	14.878	11.807	13.075	14.535	4.520	4.282	4.048	4.317	5.371	5.801	6.599	6.449	6.649	7.544	6.141	5.670	5.943	6.233	7.491	7.735	7.356	9.312	8.376	7.648	7.955	8.230	8.176	8.294	8.629	8.354	8.529	8.175	6.813	7.971	9.690	11.137	12.130	12.264	11.025	9.168	8.282	8.399	9.317	27.767	11.918	8.088	8.072	6.506	6.508	8.424	13.060	13.522	9.837	9.955	8.863	8.715	8.783	8.969	9.159	9.524	10.383	15.586	13.761	13.214	10.980	11.034	9.973	11.035	14.449	12.156	14.133	13.095	15.899	14.589	10.575	10.149	10.025	10.130	10.213	10.303	10.456	10.564	10.754	12.486	13.277	12.949	10.825	15.606	15.100	11.875	8.867	9.376	9.772	10.324	10.630	11.150	11.509	10.764	10.588	10.541	10.693	11.670	11.279	11.050	10.844	10.893	100.000	100.000	100.000	100.000	100.000	100.000	100.000	100.000	100.000	100.000	100.000	100.000	100.000	100.000	100.000	100.000	100.000	100.000	100.000	100.000	100.000	100.000	100.000	100.000	100.000	100.000	100.000	100.000	100.000	100.000	100.000	100.000	100.000	100.000	100.000	100.000	100.000	100.000	100.000	100.000	100.000	100.000	100.000	100.000	100.000	100.000
10000000000.000	10000000000.000	10000000000.000	10000000000.000	10000000000.000	10000000000.000	10000000000.000	10000000000.000	10000000000.000	10000000000.000	10000000000.000	10000000000.000	10000000000.000	7.083	7.820	5.299	5.402	5.440	6.358	6.969	10.211	13.962	19.776	27.426	19.537	19.647	17.619	7.968	10.805	7.244	7.221	14.997	8.026	13.934	11.094	10.599	16.430	18.303	18.408	17.769	17.028	18.231	10.305	6.368	4.340	4.084	4.151	5.270	5.657	7.897	7.139	7.232	6.098	8.070	5.801	5.664	5.656	6.830	7.574	8.723	6.936	9.558	10.862	9.884	8.180	8.318	8.445	9.244	10.043	10.209	10.933	11.387	10.766	7.696	8.637	12.602	12.252	12.275	11.821	10.483	9.495	8.338	8.635	10.556	17.073	13.319	20.045	9.122	12.119	6.957	8.565	8.992	19.142	23.762	10.705	8.862	8.731	8.770	8.813	8.881	9.006	9.179	10.017	10.864	11.852	10.883	12.836	12.442	11.596	12.990	11.990	10.449	10.033	9.919	9.934	9.926	10.033	10.080	10.230	10.312	10.412	10.528	10.633	14.273	17.034	11.650	10.463	15.244	13.320	10.148	9.584	9.680	10.076	10.350	11.064	10.954	10.815	10.694	10.563	10.670	11.643	11.142	10.889	10.799	10.520	100.000	100.000	100.000	100.000	100.000	100.000	100.000	100.000	100.000	100.000	100.000	100.000	100.000	100.000	100.000	100.000	100.000	100.000	100.000	100.000	100.000	100.000	100.000	100.000	100.000	100.000	100.000	100.000	100.000	100.000	100.000	100.000	100.000	100.000	100.000	100.000	100.000	100.000	100.000	100.000	100.000	100.000	100.000	100.000	100.000	100.000	100.000
10000000000.000	10000000000.000	10000000000.000	10000000000.000	10000000000.000	10000000000.000	10000000000.000	10000000000.000	10000000000.000	10000000000.000	10000000000.000	10000000000.000	10000000000.000	10000000000.000	5.841	5.558	6.212	6.352	6.382	7.718	10.992	26.532	25.459	20.319	21.251	23.238	14.420	7.565	15.922	7.275	6.770	6.838	7.890	14.868	16.841	14.651	13.270	19.845	15.195	13.427	10.577	21.096	10.697	7.938	4.183	4.119	5.052	5.799	5.961	8.247	6.639	6.919	7.748	5.771	5.771	5.619	6.363	7.434	7.421	7.270	7.150	9.448	14.787	16.270	15.090	12.741	14.742	14.186	13.445	13.360	14.502	14.579	14.729	13.205	8.321	9.668	12.277	12.324	11.093	10.254	9.853	9.209	9.122	8.710	9.463	17.705	22.662	7.907	10.382	6.825	6.716	11.890	20.660	27.543	22.309	9.711	8.726	8.745	8.784	8.860	8.909	8.938	8.951	9.030	9.084	9.197	9.298	9.385	9.676	9.678	9.671	9.664	9.736	9.810	9.877	9.950	10.014	10.043	10.180	10.278	10.413	10.493	10.557	12.157	17.637	16.552	10.510	11.678	9.286	8.632	9.101	9.391	10.232	10.684	10.729	10.715	10.573	10.506	10.686	11.631	10.939	10.678	10.694	10.598	100.000	100.000	100.000	100.000	100.000	100.000	100.000	100.000	100.000	100.000	100.000	100.000	100.000	100.000	100.000	100.000	100.000	100.000	100.000	100.000	100.000	100.000	100.000	100.000	100.000	100.000	100.000	100.000	100.000	100.000	100.000	100.000	100.000	100.000	100.000	100.000	100.000	100.000	100.000	100.000	100.000	100.000	100.000	100.000	100.000	100.000	100.000	100.000
10000000000.000	10000000000.000	10000000000.000	10000000000.000	10000000000.000	10000000000.000	10000000000.000	10000000000.000	10000000000.000	10000000000.000	10000000000.000	10000000000.000	10000000000.000	10000000000.000	10000000000.000	5.896	5.816	5.773	8.222	25.274	21.949	18.929	24.380	15.526	27.473	18.400	11.759	20.620	11.322	6.925	6.722	6.443	6.319	7.067	11.878	20.363	6.208	12.603	7.917	20.435	19.516	20.693	18.016	5.205	4.068	6.538	5.723	5.858	6.628	7.696	8.224	8.713	6.307	5.613	5.584	6.175	7.570	7.182	6.937	7.024	7.299	10.767	18.360	21.375	20.566	23.704	20.331	20.470	19.492	17.775	17.603	18.528	17.295	18.269	11.698	8.217	11.195	12.697	10.927	9.925	10.199	10.431	10.189	10.373	9.033	10.022	15.089	9.909	8.129	9.908	7.138	9.465	10.700	18.327	23.140	10.693	8.754	8.734	8.741	8.832	8.856	8.875	8.980	9.032	9.095	9.157	9.221	9.279	9.379	9.509	9.573	9.639	9.739	9.804	9.858	9.972	10.020	10.088	10.151	10.283	10.370	10.391	10.527	10.793	14.288	10.833	10.287	8.760	8.405	8.523	8.607	9.858	11.310	11.031	10.632	10.526	10.357	10.237	11.394	10.771	10.492	10.451	10.493	100.000	100.000	100.000	100.000	100.000	100.000	100.000	100.000	100.000	100.000	100.000	100.000	100.000	100.000	100.000	100.000	100.000	100.000	100.000	100.000	100.000	100.000	100.000	100.000	100.000	100.000	100.000	100.000	100.000	100.000	100.000	100.000	100.000	100.000	100.000	100.000	100.000	100.000	100.000	100.000	100.000	100.000	100.000	100.000	100.000	100.000	100.000	100.000	100.000
10000000000.000	10000000000.000	10000000000.000	10000000000.000	10000000000.000	10000000000.000	10000000000.000	10000000000.000	10000000000.000	10000000000.000	10000000000.000	10000000000.000	10000000000.000	10000000000.000	10000000000.000	10000000000.000	6.073	7.848	19.794	23.183	22.185	25.649	21.974	18.620	17.986	15.064	24.221	20.350	10.653	6.973	7.038	7.777	6.295	5.624	6.019	13.779	7.641	9.505	13.188	26.604	26.647	21.893	14.130	5.330	4.082	5.275	5.656	5.683	8.711	6.460	8.250	8.262	6.123	5.894	5.657	7.276	7.055	7.524	6.278	7.038	7.252	11.540	19.148	25.295	26.355	26.927	26.821	28.104	25.251	23.035	22.138	21.268	19.948	16.350	14.761	8.748	8.472	10.053	9.997	9.726	10.485	10.066	10.022	10.165	9.866	10.720	23.781	22.036	9.406	11.650	6.780	7.013	10.019	12.408	9.361	9.073	8.796	8.715	8.809	8.835	8.861	8.930	8.991	9.099	9.165	9.216	9.226	9.300	9.385	9.544	9.539	9.655	9.732	9.814	9.897	9.991	10.042	10.121	10.193	10.262	10.342	10.452	10.677	10.703	10.410	9.954	8.810	8.491	8.350	8.652	9.570	10.299	10.885	10.751	10.616	10.508	10.297	10.994	10.690	10.421	10.164	10.209	100.000	100.000	100.000	100.000	100.000	100.000	100.000	100.000	100.000	100.000	100.000	100.000	100.000	100.000	100.000	100.000	100.000	100.000	100.000	100.000	100.000	100.000	100.000	100.000	100.000	100.000	100.000	100.000	100.000	100.000	100.000	100.000	100.000	100.000	100.000	100.000	100.000	100.000	100.000	100.000	100.000	100.000	100.000	100.000	100.000	100.000	100.000	100.000	100.000	100.000
10000000000.000	10000000000.000	10000000000.000	10000000000.000	10000000000.000	10000000000.000	10000000000.000	10000000000.000	10000000000.000	10000000000.000	10000000000.000	10000000000.000	10000000000.000	10000000000.000	10000000000.000	10000000000.000	10000000000.000	16.621	18.102	23.813	22.366	20.828	19.128	18.376	14.075	18.012	17.077	20.188	8.122	7.165	11.289	17.752	14.672	5.764	5.195	5.959	5.779	5.413	6.860	14.341	26.139	25.675	16.887	4.939	4.174	5.107	5.694	17.267	14.683	10.010	7.436	7.343	5.852	5.854	5.857	7.504	6.848	8.025	6.991	6.920	6.707	12.438	17.471	23.450	27.953	29.552	29.937	30.135	28.385	27.286	25.623	24.428	21.247	19.768	14.665	10.516	8.548	7.890	8.862	9.355	9.144	9.443	9.807	10.206	10.331	9.937	18.435	22.823	10.204	7.758	12.161	6.220	6.482	7.691	7.759	13.171	9.128	8.816	8.826	8.846	8.817	8.924	8.963	9.062	9.161	9.215	9.241	9.288	9.406	9.594	9.615	9.706	9.785	9.857	9.944	10.037	10.093	10.157	10.171	10.280	10.434	10.688	12.200	12.774	9.943	9.564	8.656	8.425	8.835	13.437	11.108	10.786	11.311	13.909	10.592	10.329	11.120	10.644	10.305	10.111	10.152	100.000	100.000	100.000	100.000	100.000	100.000	100.000	100.000	100.000	100.000	100.000	100.000	100.000	100.000	100.000	100.000	100.000	100.000	100.000	100.000	100.000	100.000	100.000	100.000	100.000	100.000	100.000	100.000	100.000	100.000	100.000	100.000	100.000	100.000	100.000	100.000	100.000	100.000	100.000	100.000	100.000	100.000	100.000	100.000	100.000	100.000	100.000	100.000	100.000	100.000	100.000
