ncols         192
nrows         47
xllcorner     1771145
yllcorner     5472114
cellsize      10.000000
NODATA_value  -9999.000000
10000000000.000	10000000000.000	10000000000.000	10000000000.000	10000000000.000	10000000000.000	10000000000.000	10000000000.000	10000000000.000	10000000000.000	10000000000.000	10000000000.000	10000000000.000	10000000000.000	10000000000.000	10000000000.000	10000000000.000	10000000000.000	10000000000.000	10000000000.000	10000000000.000	10000000000.000	10000000000.000	10000000000.000	10000000000.000	10000000000.000	10000000000.000	10000000000.000	10000000000.000	10000000000.000	10000000000.000	10000000000.000	10000000000.000	10000000000.000	10000000000.000	10000000000.000	10000000000.000	10000000000.000	10000000000.000	10000000000.000	10000000000.000	10000000000.000	10000000000.000	10000000000.000	10000000000.000	10000000000.000	10000000000.000	10000000000.000	7.199	7.647	7.568	7.583	8.032	8.759	12.277	9.842	7.125	7.196	7.981	11.068	20.273	12.016	9.207	11.297	10.255	7.049	9.374	6.896	6.588	7.594	7.072	6.691	6.789	7.105	7.407	7.921	14.173	14.679	8.291	8.655	8.501	7.459	10.106	8.273	7.315	7.356	7.426	7.648	7.782	7.833	8.082	8.399	8.125	8.760	8.607	8.930	17.894	17.620	12.058	9.618	8.870	24.920	27.550	26.174	25.288	12.925	18.123	28.310	24.044	24.586	9.658	9.062	8.992	8.883	8.708	9.022	10.061	8.974	11.556	9.490	11.345	14.078	13.793	10.430	9.462	9.136	8.566	7.962	7.098	8.642	18.177	19.352	11.983	13.293	10.113	9.483	9.397	9.361	9.154	8.966	8.906	8.964	8.707	8.653	100.000	100.000	100.000	100.000	100.000	100.000	100.000	100.000	100.000	100.000	100.000	100.000	100.000	100.000	100.000	100.000	100.000	100.000	100.000	100.000	100.000	100.000	100.000	100.000	100.000	100.000	100.000	100.000	100.000	100.000	100.000	100.000	100.000	100.000	100.000	100.000	100.000	100.000	100.000	100.000	100.000	100.000	100.000	100.000	100.000	100.000	100.000	100.000
10000000000.000	10000000000.000	10000000000.000	10000000000.000	10000000000.000	10000000000.000	10000000000.000	10000000000.000	10000000000.000	10000000000.000	10000000000.000	10000000000.000	10000000000.000	10000000000.000	10000000000.000	10000000000.000	10000000000.000	10000000000.000	10000000000.000	10000000000.000	10000000000.000	10000000000.000	10000000000.000	10000000000.000	10000000000.000	10000000000.000	10000000000.000	10000000000.000	10000000000.000	10000000000.000	10000000000.000	10000000000.000	10000000000.000	10000000000.000	10000000000.000	10000000000.000	10000000000.000	10000000000.000	10000000000.000	10000000000.000	10000000000.000	10000000000.000	10000000000.000	10000000000.000	10000000000.000	10000000000.000	10000000000.000	10000000000.000	7.547	7.771	8.266	8.639	7.731	10.332	9.814	12.583	7.141	7.557	9.367	9.346	9.721	10.251	9.826	10.910	7.008	8.063	13.731	12.317	12.017	11.065	7.008	6.912	7.172	9.197	7.649	7.195	7.282	9.735	7.430	7.289	7.222	7.350	9.733	8.851	7.963	7.645	7.831	8.784	9.234	10.672	12.995	14.282	16.389	16.200	12.373	11.053	7.952	8.079	9.033	6.979	8.706	12.534	12.801	11.503	13.124	10.734	12.152	16.694	13.458	10.153	8.455	9.036	9.052	10.870	9.099	8.775	8.926	9.455	9.198	9.640	10.072	9.323	9.193	10.016	8.994	8.287	7.445	6.884	8.510	15.108	24.807	19.884	10.243	10.471	9.419	9.434	9.301	9.176	9.160	8.892	8.832	8.754	8.673	8.726	100.000	100.000	100.000	100.000	100.000	100.000	100.000	100.000	100.000	100.000	100.000	100.000	100.000	100.000	100.000	100.000	100.000	100.000	100.000	100.000	100.000	100.000	100.000	100.000	100.000	100.000	100.000	100.000	100.000	100.000	100.000	100.000	100.000	100.000	100.000	100.000	100.000	100.000	100.000	100.000	100.000	100.000	100.000	100.000	100.000	100.000	100.000	100.000
10000000000.000	10000000000.000	10000000000.000	10000000000.000	10000000000.000	10000000000.000	10000000000.000	10000000000.000	10000000000.000	10000000000.000	10000000000.000	10000000000.000	10000000000.000	10000000000.000	10000000000.000	10000000000.000	10000000000.000	10000000000.000	10000000000.000	10000000000.000	10000000000.000	10000000000.000	10000000000.000	10000000000.000	10000000000.000	10000000000.000	10000000000.000	10000000000.000	10000000000.000	10000000000.000	10000000000.000	10000000000.000	10000000000.000	10000000000.000	10000000000.000	10000000000.000	10000000000.000	10000000000.000	10000000000.000	10000000000.000	10000000000.000	10000000000.000	10000000000.000	10000000000.000	10000000000.000	10000000000.000	10000000000.000	10000000000.000	7.636	7.690	7.949	9.028	9.825	8.950	11.049	9.294	12.884	13.904	12.087	10.723	10.515	9.759	11.453	6.760	9.854	9.414	11.988	13.444	13.251	11.211	8.652	6.986	7.185	7.194	13.070	6.803	6.846	6.906	10.875	7.635	7.478	7.535	9.634	21.615	17.479	8.401	10.031	9.640	10.972	9.504	7.284	6.878	7.081	6.501	6.591	5.741	5.847	5.895	6.006	6.065	6.351	6.406	6.263	7.583	7.168	7.231	11.790	8.919	10.617	7.671	8.683	7.913	8.037	8.389	8.561	8.449	9.228	18.199	19.209	20.082	9.503	9.468	14.789	20.444	9.901	6.929	6.786	7.797	19.628	19.049	18.738	12.477	10.556	9.419	9.269	9.234	9.109	9.049	8.994	8.745	8.800	8.741	8.656	8.633	100.000	100.000	100.000	100.000	100.000	100.000	100.000	100.000	100.000	100.000	100.000	100.000	100.000	100.000	100.000	100.000	100.000	100.000	100.000	100.000	100.000	100.000	100.000	100.000	100.000	100.000	100.000	100.000	100.000	100.000	100.000	100.000	100.000	100.000	100.000	100.000	100.000	100.000	100.000	100.000	100.000	100.000	100.000	100.000	100.000	100.000	100.000	100.000
10000000000.000	10000000000.000	10000000000.000	10000000000.000	10000000000.000	10000000000.000	10000000000.000	10000000000.000	10000000000.000	10000000000.000	10000000000.000	10000000000.000	10000000000.000	10000000000.000	10000000000.000	10000000000.000	10000000000.000	10000000000.000	10000000000.000	10000000000.000	10000000000.000	10000000000.000	10000000000.000	10000000000.000	10000000000.000	10000000000.000	10000000000.000	10000000000.000	10000000000.000	10000000000.000	10000000000.000	10000000000.000	10000000000.000	10000000000.000	10000000000.000	10000000000.000	10000000000.000	10000000000.000	10000000000.000	10000000000.000	10000000000.000	10000000000.000	10000000000.000	10000000000.000	10000000000.000	10000000000.000	10000000000.000	10000000000.000	7.581	14.597	8.226	8.897	9.785	10.655	8.055	8.054	8.164	8.977	8.642	9.739	10.513	13.945	9.734	9.217	12.902	8.921	11.818	12.503	11.303	7.689	6.817	6.705	6.904	6.832	7.393	6.987	7.580	11.322	9.433	10.148	17.074	14.415	10.659	22.640	12.749	12.196	10.471	7.642	6.652	5.792	5.760	5.796	5.981	6.116	6.359	6.488	6.715	6.979	7.183	7.259	6.971	6.649	6.745	8.846	7.808	6.453	6.710	6.978	6.843	6.488	7.298	6.923	10.267	8.984	10.242	9.874	12.456	22.630	18.583	12.373	8.506	10.382	9.606	14.975	7.681	6.616	7.336	8.776	19.898	10.467	10.419	10.589	9.495	9.242	9.192	9.104	8.929	8.928	8.736	8.607	8.616	8.660	8.594	8.642	100.000	100.000	100.000	100.000	100.000	100.000	100.000	100.000	100.000	100.000	100.000	100.000	100.000	100.000	100.000	100.000	100.000	100.000	100.000	100.000	100.000	100.000	100.000	100.000	100.000	100.000	100.000	100.000	100.000	100.000	100.000	100.000	100.000	100.000	100.000	100.000	100.000	100.000	100.000	100.000	100.000	100.000	100.000	100.000	100.000	100.000	100.000	100.000
10000000000.000	10000000000.000	10000000000.000	10000000000.000	10000000000.000	10000000000.000	10000000000.000	10000000000.000	10000000000.000	10000000000.000	10000000000.000	10000000000.000	10000000000.000	10000000000.000	10000000000.000	10000000000.000	10000000000.000	10000000000.000	10000000000.000	10000000000.000	10000000000.000	10000000000.000	10000000000.000	10000000000.000	10000000000.000	10000000000.000	10000000000.000	10000000000.000	10000000000.000	10000000000.000	10000000000.000	10000000000.000	10000000000.000	10000000000.000	10000000000.000	10000000000.000	10000000000.000	10000000000.000	10000000000.000	10000000000.000	10000000000.000	10000000000.000	10000000000.000	10000000000.000	10000000000.000	10000000000.000	10000000000.000	10000000000.000	7.527	9.299	8.272	10.924	8.242	9.451	9.597	8.714	9.281	7.694	8.044	9.957	13.487	12.208	9.188	6.235	15.100	12.443	13.036	7.612	6.933	6.568	6.249	7.677	6.707	7.114	6.846	7.111	7.666	12.551	26.242	30.144	29.646	26.164	10.292	10.281	8.172	6.413	5.978	5.819	5.727	6.018	6.254	6.920	7.160	11.241	12.150	12.782	11.844	10.377	8.766	11.545	13.942	9.103	14.876	11.058	13.616	11.219	11.379	9.126	9.263	7.164	6.537	6.474	6.618	6.541	6.924	7.227	8.704	10.247	13.297	8.264	6.612	6.826	7.198	7.177	7.313	9.343	9.470	11.937	22.496	10.930	10.317	9.364	9.193	9.117	9.033	8.908	8.854	8.791	8.562	8.635	8.552	8.499	8.530	8.579	100.000	100.000	100.000	100.000	100.000	100.000	100.000	100.000	100.000	100.000	100.000	100.000	100.000	100.000	100.000	100.000	100.000	100.000	100.000	100.000	100.000	100.000	100.000	100.000	100.000	100.000	100.000	100.000	100.000	100.000	100.000	100.000	100.000	100.000	100.000	100.000	100.000	100.000	100.000	100.000	100.000	100.000	100.000	100.000	100.000	100.000	100.000	100.000
10000000000.000	10000000000.000	10000000000.000	10000000000.000	10000000000.000	10000000000.000	10000000000.000	10000000000.000	10000000000.000	10000000000.000	10000000000.000	10000000000.000	10000000000.000	10000000000.000	10000000000.000	10000000000.000	10000000000.000	10000000000.000	10000000000.000	10000000000.000	10000000000.000	10000000000.000	10000000000.000	10000000000.000	10000000000.000	10000000000.000	10000000000.000	10000000000.000	10000000000.000	10000000000.000	10000000000.000	10000000000.000	10000000000.000	10000000000.000	10000000000.000	10000000000.000	10000000000.000	10000000000.000	10000000000.000	10000000000.000	10000000000.000	10000000000.000	10000000000.000	10000000000.000	10000000000.000	10000000000.000	10000000000.000	10000000000.000	7.484	9.494	8.126	8.529	8.100	10.249	10.330	8.457	7.886	8.255	10.751	8.599	14.533	15.022	8.934	14.448	12.527	18.360	15.537	6.572	6.080	6.155	6.342	6.622	7.454	7.238	7.365	8.540	14.161	27.892	30.634	27.735	26.739	10.818	6.972	5.860	5.650	5.690	5.747	5.871	5.973	8.574	11.164	9.747	13.858	20.458	19.050	26.823	11.427	15.943	22.703	23.644	12.024	19.003	23.837	19.105	9.272	9.314	8.703	8.654	13.930	10.930	10.757	13.766	12.291	10.052	7.906	10.679	10.220	7.272	7.638	8.151	10.002	9.366	11.521	9.104	17.348	22.974	23.588	23.015	10.571	10.466	9.267	9.184	9.096	8.905	8.809	8.753	8.765	8.588	8.495	8.570	8.463	8.536	8.425	8.462	100.000	100.000	100.000	100.000	100.000	100.000	100.000	100.000	100.000	100.000	100.000	100.000	100.000	100.000	100.000	100.000	100.000	100.000	100.000	100.000	100.000	100.000	100.000	100.000	100.000	100.000	100.000	100.000	100.000	100.000	100.000	100.000	100.000	100.000	100.000	100.000	100.000	100.000	100.000	100.000	100.000	100.000	100.000	100.000	100.000	100.000	100.000	100.000
10000000000.000	10000000000.000	10000000000.000	10000000000.000	10000000000.000	10000000000.000	10000000000.000	10000000000.000	10000000000.000	10000000000.000	10000000000.000	10000000000.000	10000000000.000	10000000000.000	10000000000.000	10000000000.000	10000000000.000	10000000000.000	10000000000.000	10000000000.000	10000000000.000	10000000000.000	10000000000.000	10000000000.000	10000000000.000	10000000000.000	10000000000.000	10000000000.000	10000000000.000	10000000000.000	10000000000.000	10000000000.000	10000000000.000	10000000000.000	10000000000.000	10000000000.000	10000000000.000	10000000000.000	10000000000.000	10000000000.000	10000000000.000	10000000000.000	10000000000.000	10000000000.000	10000000000.000	10000000000.000	10000000000.000	10000000000.000	7.797	8.228	10.275	7.943	12.110	8.008	10.297	8.151	7.734	8.509	10.998	11.408	13.155	9.322	11.063	13.631	17.125	13.353	7.184	6.012	6.055	6.310	6.542	7.053	7.150	7.333	8.864	15.575	26.558	20.556	20.831	12.591	9.037	6.288	5.548	5.582	5.665	5.789	5.925	6.316	7.085	10.429	12.766	23.331	27.320	28.106	24.096	10.051	10.255	16.516	13.186	19.416	11.057	24.970	11.631	10.645	12.768	16.267	19.503	17.632	9.477	9.826	17.252	18.342	11.572	8.618	15.586	24.875	23.671	20.225	11.339	12.113	18.473	23.206	24.582	21.226	22.020	19.509	15.666	12.363	9.924	9.053	9.003	9.030	8.819	8.751	8.671	8.607	8.536	8.433	8.470	8.462	8.443	8.425	8.371	8.180	100.000	100.000	100.000	100.000	100.000	100.000	100.000	100.000	100.000	100.000	100.000	100.000	100.000	100.000	100.000	100.000	100.000	100.000	100.000	100.000	100.000	100.000	100.000	100.000	100.000	100.000	100.000	100.000	100.000	100.000	100.000	100.000	100.000	100.000	100.000	100.000	100.000	100.000	100.000	100.000	100.000	100.000	100.000	100.000	100.000	100.000	100.000	100.000
10000000000.000	10000000000.000	10000000000.000	10000000000.000	10000000000.000	10000000000.000	10000000000.000	10000000000.000	10000000000.000	10000000000.000	10000000000.000	10000000000.000	10000000000.000	10000000000.000	10000000000.000	10000000000.000	10000000000.000	10000000000.000	10000000000.000	10000000000.000	10000000000.000	10000000000.000	10000000000.000	10000000000.000	10000000000.000	10000000000.000	10000000000.000	10000000000.000	10000000000.000	10000000000.000	10000000000.000	10000000000.000	10000000000.000	10000000000.000	10000000000.000	10000000000.000	10000000000.000	10000000000.000	10000000000.000	10000000000.000	10000000000.000	10000000000.000	10000000000.000	10000000000.000	10000000000.000	10000000000.000	10000000000.000	10000000000.000	7.955	8.630	9.855	7.930	9.647	8.242	9.644	10.238	9.214	11.125	13.999	8.734	14.738	8.143	14.269	16.618	11.990	16.854	8.430	6.105	6.267	6.663	6.985	7.051	7.246	7.768	17.772	24.937	19.281	8.339	9.398	7.337	5.851	5.562	5.515	5.965	6.400	6.620	6.975	8.986	13.448	15.662	22.689	27.004	14.064	22.242	9.478	8.547	8.472	8.500	8.524	8.865	8.729	8.814	8.742	8.076	17.300	20.073	20.342	18.019	13.231	20.297	12.970	18.039	20.469	11.769	17.206	16.893	12.035	10.556	10.358	13.621	20.022	16.026	14.659	12.793	11.533	10.857	9.433	9.135	8.899	8.886	8.798	8.772	8.623	8.557	8.502	8.496	8.429	8.338	8.417	8.434	8.376	8.343	8.520	8.399	100.000	100.000	100.000	100.000	100.000	100.000	100.000	100.000	100.000	100.000	100.000	100.000	100.000	100.000	100.000	100.000	100.000	100.000	100.000	100.000	100.000	100.000	100.000	100.000	100.000	100.000	100.000	100.000	100.000	100.000	100.000	100.000	100.000	100.000	100.000	100.000	100.000	100.000	100.000	100.000	100.000	100.000	100.000	100.000	100.000	100.000	100.000	100.000
10000000000.000	10000000000.000	10000000000.000	10000000000.000	10000000000.000	10000000000.000	10000000000.000	10000000000.000	10000000000.000	10000000000.000	10000000000.000	10000000000.000	10000000000.000	10000000000.000	10000000000.000	10000000000.000	10000000000.000	10000000000.000	10000000000.000	10000000000.000	10000000000.000	10000000000.000	10000000000.000	10000000000.000	10000000000.000	10000000000.000	10000000000.000	10000000000.000	10000000000.000	10000000000.000	10000000000.000	10000000000.000	10000000000.000	10000000000.000	10000000000.000	10000000000.000	10000000000.000	10000000000.000	10000000000.000	10000000000.000	10000000000.000	10000000000.000	10000000000.000	10000000000.000	10000000000.000	10000000000.000	10000000000.000	10000000000.000	7.365	10.214	7.406	8.215	8.074	10.326	7.550	8.501	11.348	10.890	11.814	7.525	11.767	7.393	6.854	10.566	17.669	6.345	6.355	6.380	6.593	6.873	6.925	7.077	7.514	14.325	25.853	24.393	11.493	8.110	6.285	5.629	5.512	5.580	5.840	6.264	11.756	7.761	9.608	16.360	27.135	22.857	25.946	16.713	9.027	9.598	10.401	9.375	8.608	8.402	8.397	8.711	9.756	10.068	10.188	10.050	9.510	10.144	9.325	9.789	7.412	10.541	9.026	8.878	8.381	9.005	8.937	8.929	8.283	8.723	8.474	8.831	8.862	8.838	8.893	8.979	9.165	8.892	8.784	8.640	8.741	8.672	8.618	8.535	8.427	8.467	8.394	8.389	8.382	8.365	8.336	8.363	8.216	8.204	8.441	8.320	100.000	100.000	100.000	100.000	100.000	100.000	100.000	100.000	100.000	100.000	100.000	100.000	100.000	100.000	100.000	100.000	100.000	100.000	100.000	100.000	100.000	100.000	100.000	100.000	100.000	100.000	100.000	100.000	100.000	100.000	100.000	100.000	100.000	100.000	100.000	100.000	100.000	100.000	100.000	100.000	100.000	100.000	100.000	100.000	100.000	100.000	100.000	100.000
10000000000.000	10000000000.000	10000000000.000	10000000000.000	10000000000.000	10000000000.000	10000000000.000	10000000000.000	10000000000.000	10000000000.000	10000000000.000	10000000000.000	10000000000.000	10000000000.000	10000000000.000	10000000000.000	10000000000.000	10000000000.000	10000000000.000	10000000000.000	10000000000.000	10000000000.000	10000000000.000	10000000000.000	10000000000.000	10000000000.000	10000000000.000	10000000000.000	10000000000.000	10000000000.000	10000000000.000	10000000000.000	10000000000.000	10000000000.000	10000000000.000	10000000000.000	10000000000.000	10000000000.000	10000000000.000	10000000000.000	10000000000.000	10000000000.000	10000000000.000	10000000000.000	10000000000.000	10000000000.000	10000000000.000	10000000000.000	10.394	7.917	7.902	8.163	10.790	12.566	7.903	7.566	8.663	10.601	8.814	8.366	11.048	5.818	6.412	10.823	14.648	6.266	6.368	6.503	6.605	6.694	7.015	7.333	7.841	10.271	18.513	12.901	7.359	5.623	5.462	5.387	5.733	6.297	7.946	8.874	7.920	9.538	22.022	23.878	27.171	11.083	10.653	8.907	8.447	10.385	11.200	10.767	10.415	10.150	9.883	9.574	10.623	10.546	9.994	10.389	10.513	11.009	10.431	9.152	9.227	9.331	9.246	9.477	9.352	10.386	10.031	11.135	10.587	11.857	8.800	8.589	8.805	8.532	8.093	8.427	8.483	8.560	8.378	8.377	8.517	8.606	8.473	8.316	8.237	8.276	8.281	8.316	8.275	8.307	8.321	8.201	8.172	7.903	8.313	8.240	100.000	100.000	100.000	100.000	100.000	100.000	100.000	100.000	100.000	100.000	100.000	100.000	100.000	100.000	100.000	100.000	100.000	100.000	100.000	100.000	100.000	100.000	100.000	100.000	100.000	100.000	100.000	100.000	100.000	100.000	100.000	100.000	100.000	100.000	100.000	100.000	100.000	100.000	100.000	100.000	100.000	100.000	100.000	100.000	100.000	100.000	100.000	100.000
10000000000.000	10000000000.000	10000000000.000	10000000000.000	10000000000.000	10000000000.000	10000000000.000	10000000000.000	10000000000.000	10000000000.000	10000000000.000	10000000000.000	10000000000.000	10000000000.000	10000000000.000	10000000000.000	10000000000.000	10000000000.000	10000000000.000	10000000000.000	10000000000.000	10000000000.000	10000000000.000	10000000000.000	10000000000.000	10000000000.000	10000000000.000	10000000000.000	10000000000.000	10000000000.000	10000000000.000	10000000000.000	10000000000.000	10000000000.000	10000000000.000	10000000000.000	10000000000.000	10000000000.000	10000000000.000	10000000000.000	10000000000.000	10000000000.000	10000000000.000	10000000000.000	10000000000.000	10000000000.000	10000000000.000	10000000000.000	10.708	9.522	10.059	7.410	7.248	13.562	7.697	7.470	9.125	9.865	9.598	7.874	13.520	15.752	6.207	6.203	6.036	6.260	6.474	6.584	6.555	6.726	7.264	10.066	21.742	9.986	14.175	6.527	5.486	5.389	5.333	5.873	9.121	8.578	8.254	7.864	7.606	10.597	24.742	22.329	18.410	8.598	7.282	7.531	8.758	11.558	12.619	12.171	11.936	10.925	10.279	10.189	10.708	10.162	9.770	10.960	10.926	8.842	10.247	10.939	11.246	11.292	11.217	10.841	10.553	10.770	11.804	12.023	11.494	11.174	9.154	9.964	11.161	11.861	10.352	10.861	8.340	8.252	8.253	8.330	9.149	14.540	8.821	8.181	8.243	8.190	8.128	8.170	8.206	8.231	8.230	8.090	8.312	8.198	8.221	8.203	100.000	100.000	100.000	100.000	100.000	100.000	100.000	100.000	100.000	100.000	100.000	100.000	100.000	100.000	100.000	100.000	100.000	100.000	100.000	100.000	100.000	100.000	100.000	100.000	100.000	100.000	100.000	100.000	100.000	100.000	100.000	100.000	100.000	100.000	100.000	100.000	100.000	100.000	100.000	100.000	100.000	100.000	100.000	100.000	100.000	100.000	100.000	100.000
10000000000.000	10000000000.000	10000000000.000	10000000000.000	10000000000.000	10000000000.000	10000000000.000	10000000000.000	10000000000.000	10000000000.000	10000000000.000	10000000000.000	10000000000.000	10000000000.000	10000000000.000	10000000000.000	10000000000.000	10000000000.000	10000000000.000	10000000000.000	10000000000.000	10000000000.000	10000000000.000	10000000000.000	10000000000.000	10000000000.000	10000000000.000	10000000000.000	10000000000.000	10000000000.000	10000000000.000	10000000000.000	10000000000.000	10000000000.000	10000000000.000	10000000000.000	10000000000.000	10000000000.000	10000000000.000	10000000000.000	10000000000.000	10000000000.000	10000000000.000	10000000000.000	10000000000.000	10000000000.000	10000000000.000	10000000000.000	15.132	9.728	8.053	13.378	8.996	15.720	8.578	7.573	8.101	8.516	10.077	8.402	10.275	14.141	6.001	5.643	6.025	6.415	6.408	6.511	6.628	7.360	14.395	20.960	23.597	13.808	7.763	5.578	5.352	5.446	6.119	7.653	9.492	11.054	7.950	20.010	20.082	23.105	20.507	8.446	7.754	7.114	7.150	7.789	9.285	10.900	11.750	12.477	12.215	11.075	9.976	9.761	9.731	8.808	9.910	9.991	9.648	10.589	11.607	12.682	12.882	12.808	11.853	9.797	8.607	8.808	10.021	11.658	12.240	10.902	10.605	12.371	12.867	13.415	13.232	11.097	8.845	8.354	7.839	8.258	11.614	14.778	11.609	8.238	8.174	8.113	8.089	8.134	8.099	8.106	8.059	8.127	8.250	8.169	8.159	8.141	100.000	100.000	100.000	100.000	100.000	100.000	100.000	100.000	100.000	100.000	100.000	100.000	100.000	100.000	100.000	100.000	100.000	100.000	100.000	100.000	100.000	100.000	100.000	100.000	100.000	100.000	100.000	100.000	100.000	100.000	100.000	100.000	100.000	100.000	100.000	100.000	100.000	100.000	100.000	100.000	100.000	100.000	100.000	100.000	100.000	100.000	100.000	100.000
10000000000.000	10000000000.000	10000000000.000	10000000000.000	10000000000.000	10000000000.000	10000000000.000	10000000000.000	10000000000.000	10000000000.000	10000000000.000	10000000000.000	10000000000.000	10000000000.000	10000000000.000	10000000000.000	10000000000.000	10000000000.000	10000000000.000	10000000000.000	10000000000.000	10000000000.000	10000000000.000	10000000000.000	10000000000.000	10000000000.000	10000000000.000	10000000000.000	10000000000.000	10000000000.000	10000000000.000	10000000000.000	10000000000.000	10000000000.000	10000000000.000	10000000000.000	10000000000.000	10000000000.000	10000000000.000	10000000000.000	10000000000.000	10000000000.000	10000000000.000	10000000000.000	10000000000.000	10000000000.000	10000000000.000	10000000000.000	13.817	12.534	10.461	9.791	15.779	8.724	8.049	9.863	8.135	10.767	10.544	13.102	14.846	13.721	6.235	5.655	6.165	6.317	6.378	6.527	7.656	16.078	20.269	24.560	24.284	12.466	5.448	5.354	5.558	7.851	11.707	24.095	27.394	17.158	7.666	7.918	8.881	10.643	7.937	6.993	7.069	7.556	8.532	9.568	11.606	10.012	11.218	11.393	12.236	13.461	10.162	10.072	9.361	8.819	8.687	9.249	10.379	11.300	12.475	12.831	12.977	12.467	10.959	8.543	8.180	9.133	10.687	12.370	11.968	11.694	13.715	14.731	14.824	14.620	13.705	12.877	14.768	8.535	8.364	8.325	8.175	8.585	9.022	8.292	7.903	7.963	7.874	7.932	8.053	8.050	8.054	7.682	8.075	8.095	8.065	7.879	100.000	100.000	100.000	100.000	100.000	100.000	100.000	100.000	100.000	100.000	100.000	100.000	100.000	100.000	100.000	100.000	100.000	100.000	100.000	100.000	100.000	100.000	100.000	100.000	100.000	100.000	100.000	100.000	100.000	100.000	100.000	100.000	100.000	100.000	100.000	100.000	100.000	100.000	100.000	100.000	100.000	100.000	100.000	100.000	100.000	100.000	100.000	100.000
10000000000.000	10000000000.000	10000000000.000	10000000000.000	10000000000.000	10000000000.000	10000000000.000	10000000000.000	10000000000.000	10000000000.000	10000000000.000	10000000000.000	10000000000.000	10000000000.000	10000000000.000	10000000000.000	10000000000.000	10000000000.000	10000000000.000	10000000000.000	10000000000.000	10000000000.000	10000000000.000	10000000000.000	10000000000.000	10000000000.000	10000000000.000	10000000000.000	10000000000.000	10000000000.000	10000000000.000	10000000000.000	10000000000.000	10000000000.000	10000000000.000	10000000000.000	10000000000.000	10000000000.000	10000000000.000	10000000000.000	10000000000.000	10000000000.000	10000000000.000	10000000000.000	10000000000.000	10000000000.000	10000000000.000	10000000000.000	13.055	11.336	14.340	11.953	13.984	9.401	10.403	11.124	8.621	8.391	10.404	8.764	14.098	18.030	7.610	5.840	6.218	6.237	6.421	6.856	15.070	24.743	27.106	20.172	20.096	6.231	5.310	5.341	7.443	14.975	26.873	22.689	24.768	24.373	7.721	7.156	7.416	7.196	6.621	7.472	8.356	7.650	7.660	7.543	6.311	7.790	7.805	8.753	10.512	10.189	9.954	8.892	8.509	8.505	9.571	10.504	11.802	12.081	12.823	12.671	13.017	11.542	9.571	9.231	10.140	10.994	11.269	12.449	14.055	14.041	14.828	15.271	15.475	14.835	13.851	11.844	8.975	8.279	8.062	8.139	8.843	8.532	8.244	7.950	7.821	7.659	7.583	8.032	8.298	7.923	7.940	7.939	7.839	7.935	7.904	7.826	100.000	100.000	100.000	100.000	100.000	100.000	100.000	100.000	100.000	100.000	100.000	100.000	100.000	100.000	100.000	100.000	100.000	100.000	100.000	100.000	100.000	100.000	100.000	100.000	100.000	100.000	100.000	100.000	100.000	100.000	100.000	100.000	100.000	100.000	100.000	100.000	100.000	100.000	100.000	100.000	100.000	100.000	100.000	100.000	100.000	100.000	100.000	100.000
10000000000.000	10000000000.000	10000000000.000	10000000000.000	10000000000.000	10000000000.000	10000000000.000	10000000000.000	10000000000.000	10000000000.000	10000000000.000	10000000000.000	10000000000.000	10000000000.000	10000000000.000	10000000000.000	10000000000.000	10000000000.000	10000000000.000	10000000000.000	10000000000.000	10000000000.000	10000000000.000	10000000000.000	10000000000.000	10000000000.000	10000000000.000	10000000000.000	10000000000.000	10000000000.000	10000000000.000	10000000000.000	10000000000.000	10000000000.000	10000000000.000	10000000000.000	10000000000.000	10000000000.000	10000000000.000	10000000000.000	10000000000.000	10000000000.000	10000000000.000	10000000000.000	10000000000.000	10000000000.000	10000000000.000	10000000000.000	12.313	8.703	13.737	13.649	11.418	8.222	9.292	9.878	9.324	7.841	9.140	8.197	14.377	16.841	6.608	5.649	6.148	6.372	6.912	8.794	26.655	27.109	12.904	15.548	8.055	5.720	5.222	5.962	7.271	21.391	27.311	21.757	11.357	7.615	7.511	7.074	7.091	8.121	7.536	7.956	9.231	8.215	8.471	6.954	9.515	11.186	11.177	9.402	9.222	9.021	8.586	8.932	9.677	10.115	10.736	11.454	11.367	11.416	12.005	11.828	11.500	9.945	9.454	10.399	11.456	11.463	11.809	13.262	13.668	13.827	14.497	15.291	15.752	18.493	21.392	17.855	9.331	9.046	8.833	8.388	7.946	7.988	8.230	7.931	8.020	7.974	7.894	8.004	7.972	7.797	7.716	7.715	7.708	7.737	7.622	7.687	100.000	100.000	100.000	100.000	100.000	100.000	100.000	100.000	100.000	100.000	100.000	100.000	100.000	100.000	100.000	100.000	100.000	100.000	100.000	100.000	100.000	100.000	100.000	100.000	100.000	100.000	100.000	100.000	100.000	100.000	100.000	100.000	100.000	100.000	100.000	100.000	100.000	100.000	100.000	100.000	100.000	100.000	100.000	100.000	100.000	100.000	100.000	100.000
10000000000.000	10000000000.000	10000000000.000	10000000000.000	10000000000.000	10000000000.000	10000000000.000	10000000000.000	10000000000.000	10000000000.000	10000000000.000	10000000000.000	10000000000.000	10000000000.000	10000000000.000	10000000000.000	10000000000.000	10000000000.000	10000000000.000	10000000000.000	10000000000.000	10000000000.000	10000000000.000	10000000000.000	10000000000.000	10000000000.000	10000000000.000	10000000000.000	10000000000.000	10000000000.000	10000000000.000	10000000000.000	10000000000.000	10000000000.000	10000000000.000	10000000000.000	10000000000.000	10000000000.000	10000000000.000	10000000000.000	10000000000.000	10000000000.000	10000000000.000	10000000000.000	10000000000.000	10000000000.000	10000000000.000	10000000000.000	7.693	8.147	9.693	14.852	9.627	8.988	8.083	8.144	7.701	7.383	7.920	11.133	11.909	8.216	5.803	5.669	6.039	6.502	9.638	24.381	29.249	17.816	10.223	7.890	5.640	5.114	5.235	5.934	16.051	25.253	12.267	8.016	8.126	7.222	6.976	7.805	8.752	8.441	7.988	8.390	8.106	8.503	8.924	11.109	12.771	14.811	17.731	15.076	13.926	11.048	9.670	9.819	10.129	10.888	11.229	11.318	10.551	10.596	10.690	10.835	10.086	9.183	9.648	10.390	10.992	11.331	11.542	12.103	12.889	13.894	14.706	15.586	16.081	20.171	21.287	22.689	21.336	18.783	18.398	9.361	9.148	8.652	8.599	8.703	8.111	8.275	8.175	9.179	9.012	8.445	7.835	7.632	7.559	7.590	7.613	7.598	100.000	100.000	100.000	100.000	100.000	100.000	100.000	100.000	100.000	100.000	100.000	100.000	100.000	100.000	100.000	100.000	100.000	100.000	100.000	100.000	100.000	100.000	100.000	100.000	100.000	100.000	100.000	100.000	100.000	100.000	100.000	100.000	100.000	100.000	100.000	100.000	100.000	100.000	100.000	100.000	100.000	100.000	100.000	100.000	100.000	100.000	100.000	100.000
10000000000.000	10000000000.000	10000000000.000	10000000000.000	10000000000.000	10000000000.000	10000000000.000	10000000000.000	10000000000.000	10000000000.000	10000000000.000	10000000000.000	10000000000.000	10000000000.000	10000000000.000	10000000000.000	10000000000.000	10000000000.000	10000000000.000	10000000000.000	10000000000.000	10000000000.000	10000000000.000	10000000000.000	10000000000.000	10000000000.000	10000000000.000	10000000000.000	10000000000.000	10000000000.000	10000000000.000	10000000000.000	10000000000.000	10000000000.000	10000000000.000	10000000000.000	10000000000.000	10000000000.000	10000000000.000	10000000000.000	10000000000.000	10000000000.000	10000000000.000	10000000000.000	10000000000.000	10000000000.000	10000000000.000	10000000000.000	6.827	7.501	12.724	9.876	7.517	8.313	7.672	8.060	7.426	7.168	8.986	7.622	9.556	7.789	6.076	5.801	6.145	7.787	18.083	27.970	21.075	17.721	9.315	5.916	5.042	5.145	5.196	6.008	17.412	20.829	8.264	7.608	7.238	6.848	6.876	7.019	8.360	8.597	8.350	8.487	8.245	8.183	9.904	13.328	15.801	18.489	19.722	16.704	16.251	15.831	10.892	8.865	9.650	9.981	10.232	10.330	10.132	9.794	9.647	9.541	8.861	8.163	10.025	10.649	11.095	10.358	10.800	11.572	13.968	18.874	15.324	15.934	22.022	22.712	23.073	23.029	20.149	15.214	15.846	11.316	10.755	10.212	14.221	20.375	11.701	15.451	12.052	11.805	11.835	11.175	9.671	8.629	7.880	7.654	7.556	7.643	100.000	100.000	100.000	100.000	100.000	100.000	100.000	100.000	100.000	100.000	100.000	100.000	100.000	100.000	100.000	100.000	100.000	100.000	100.000	100.000	100.000	100.000	100.000	100.000	100.000	100.000	100.000	100.000	100.000	100.000	100.000	100.000	100.000	100.000	100.000	100.000	100.000	100.000	100.000	100.000	100.000	100.000	100.000	100.000	100.000	100.000	100.000	100.000
10000000000.000	10000000000.000	10000000000.000	10000000000.000	10000000000.000	10000000000.000	10000000000.000	10000000000.000	10000000000.000	10000000000.000	10000000000.000	10000000000.000	10000000000.000	10000000000.000	10000000000.000	10000000000.000	10000000000.000	10000000000.000	10000000000.000	10000000000.000	10000000000.000	10000000000.000	10000000000.000	10000000000.000	10000000000.000	10000000000.000	10000000000.000	10000000000.000	10000000000.000	10000000000.000	10000000000.000	10000000000.000	10000000000.000	10000000000.000	10000000000.000	10000000000.000	10000000000.000	10000000000.000	10000000000.000	10000000000.000	10000000000.000	10000000000.000	10000000000.000	10000000000.000	10000000000.000	10000000000.000	10000000000.000	10000000000.000	9.604	9.584	10.866	8.202	7.140	7.113	7.240	11.162	8.584	7.614	9.323	7.142	7.412	7.714	6.623	5.945	6.569	10.893	23.761	22.355	13.805	7.660	7.883	4.995	4.946	5.102	5.209	5.998	8.778	13.626	7.485	7.167	6.812	6.878	6.705	6.963	7.433	7.377	8.839	8.569	8.401	9.748	12.013	15.013	17.691	20.883	21.918	21.636	20.001	19.192	16.289	10.404	11.194	15.159	15.250	14.359	15.228	12.367	11.031	10.591	9.159	6.740	7.661	9.581	11.082	14.109	16.792	19.956	23.521	24.025	17.471	21.542	22.976	16.570	16.744	15.182	13.475	12.883	12.591	12.273	11.896	11.725	13.683	13.218	13.173	12.438	12.017	12.036	13.475	11.593	11.412	11.369	9.382	8.342	7.423	7.852	100.000	100.000	100.000	100.000	100.000	100.000	100.000	100.000	100.000	100.000	100.000	100.000	100.000	100.000	100.000	100.000	100.000	100.000	100.000	100.000	100.000	100.000	100.000	100.000	100.000	100.000	100.000	100.000	100.000	100.000	100.000	100.000	100.000	100.000	100.000	100.000	100.000	100.000	100.000	100.000	100.000	100.000	100.000	100.000	100.000	100.000	100.000	100.000
10000000000.000	10000000000.000	10000000000.000	10000000000.000	10000000000.000	10000000000.000	10000000000.000	10000000000.000	10000000000.000	10000000000.000	10000000000.000	10000000000.000	10000000000.000	10000000000.000	10000000000.000	10000000000.000	10000000000.000	10000000000.000	10000000000.000	10000000000.000	10000000000.000	10000000000.000	10000000000.000	10000000000.000	10000000000.000	10000000000.000	10000000000.000	10000000000.000	10000000000.000	10000000000.000	10000000000.000	10000000000.000	10000000000.000	10000000000.000	10000000000.000	10000000000.000	10000000000.000	10000000000.000	10000000000.000	10000000000.000	10000000000.000	10000000000.000	10000000000.000	10000000000.000	10000000000.000	10000000000.000	10000000000.000	10000000000.000	10.376	12.711	8.134	6.861	6.763	6.801	6.823	7.446	14.375	7.907	9.663	6.928	7.373	7.656	6.924	6.083	6.417	8.008	18.496	11.375	7.505	7.449	6.554	4.706	5.042	5.127	5.241	6.592	7.388	7.190	7.023	6.762	6.658	6.706	6.713	7.320	7.926	8.255	8.332	7.981	8.429	11.967	15.090	20.096	21.240	23.137	25.148	22.333	23.146	21.127	17.128	13.002	15.272	16.677	17.463	20.191	19.677	17.581	16.690	14.244	8.198	6.250	7.925	9.339	10.599	19.077	22.864	24.153	24.571	25.061	24.091	24.534	21.705	22.613	21.956	14.184	13.247	12.858	12.601	12.416	12.306	12.302	12.457	12.486	12.299	12.106	12.253	11.993	11.971	11.617	11.328	13.206	10.901	9.933	8.845	8.434	100.000	100.000	100.000	100.000	100.000	100.000	100.000	100.000	100.000	100.000	100.000	100.000	100.000	100.000	100.000	100.000	100.000	100.000	100.000	100.000	100.000	100.000	100.000	100.000	100.000	100.000	100.000	100.000	100.000	100.000	100.000	100.000	100.000	100.000	100.000	100.000	100.000	100.000	100.000	100.000	100.000	100.000	100.000	100.000	100.000	100.000	100.000	100.000
10000000000.000	10000000000.000	10000000000.000	10000000000.000	10000000000.000	10000000000.000	10000000000.000	10000000000.000	10000000000.000	10000000000.000	10000000000.000	10000000000.000	10000000000.000	10000000000.000	10000000000.000	10000000000.000	10000000000.000	10000000000.000	10000000000.000	10000000000.000	10000000000.000	10000000000.000	10000000000.000	10000000000.000	10000000000.000	10000000000.000	10000000000.000	10000000000.000	10000000000.000	10000000000.000	10000000000.000	10000000000.000	10000000000.000	10000000000.000	10000000000.000	10000000000.000	10000000000.000	10000000000.000	10000000000.000	10000000000.000	10000000000.000	10000000000.000	10000000000.000	10000000000.000	10000000000.000	10000000000.000	10000000000.000	10000000000.000	13.797	8.491	7.255	6.678	6.579	6.713	6.673	6.786	8.194	8.942	8.968	7.032	7.296	7.668	7.067	6.277	7.381	9.245	9.353	7.779	12.082	8.333	5.686	4.876	5.062	5.076	5.420	7.025	7.197	7.471	7.141	6.786	6.494	6.754	7.381	8.309	8.130	8.451	7.915	8.048	10.723	16.999	20.657	23.762	25.746	26.450	26.238	24.884	23.587	20.457	17.149	15.855	18.366	21.150	21.271	22.891	22.213	20.256	17.486	15.571	12.470	8.134	9.205	15.111	20.032	22.910	25.089	24.891	27.711	27.687	26.780	25.392	21.483	24.174	18.886	12.592	13.004	13.030	12.905	12.705	12.696	12.599	12.513	12.626	12.211	11.970	11.974	12.042	12.068	11.748	11.166	10.931	10.809	10.364	9.677	9.351	100.000	100.000	100.000	100.000	100.000	100.000	100.000	100.000	100.000	100.000	100.000	100.000	100.000	100.000	100.000	100.000	100.000	100.000	100.000	100.000	100.000	100.000	100.000	100.000	100.000	100.000	100.000	100.000	100.000	100.000	100.000	100.000	100.000	100.000	100.000	100.000	100.000	100.000	100.000	100.000	100.000	100.000	100.000	100.000	100.000	100.000	100.000	100.000
10000000000.000	10000000000.000	10000000000.000	10000000000.000	10000000000.000	10000000000.000	10000000000.000	10000000000.000	10000000000.000	10000000000.000	10000000000.000	10000000000.000	10000000000.000	10000000000.000	10000000000.000	10000000000.000	10000000000.000	10000000000.000	10000000000.000	10000000000.000	10000000000.000	10000000000.000	10000000000.000	10000000000.000	10000000000.000	10000000000.000	10000000000.000	10000000000.000	10000000000.000	10000000000.000	10000000000.000	10000000000.000	10000000000.000	10000000000.000	10000000000.000	10000000000.000	10000000000.000	10000000000.000	10000000000.000	10000000000.000	10000000000.000	10000000000.000	10000000000.000	10000000000.000	10000000000.000	10000000000.000	10000000000.000	10000000000.000	13.700	14.077	11.957	6.810	6.620	6.613	6.624	6.563	6.737	6.968	6.868	7.037	7.041	7.734	7.155	6.555	14.761	18.237	6.358	8.083	6.843	8.571	5.788	4.985	5.004	5.078	6.899	8.769	6.949	8.143	8.397	6.744	6.595	7.518	8.289	8.003	7.604	7.594	8.354	9.889	15.934	20.406	25.303	28.221	28.959	28.934	29.248	27.719	24.672	21.872	16.652	18.813	21.355	23.915	25.029	25.299	24.389	22.119	18.988	16.771	18.392	19.913	21.614	23.159	24.594	27.020	26.907	28.170	28.793	28.508	26.319	24.831	13.262	20.101	16.393	12.502	13.232	13.406	13.228	12.998	12.790	12.652	12.383	12.770	12.352	12.295	12.268	12.173	12.209	12.084	11.425	11.007	10.745	10.536	9.964	9.583	100.000	100.000	100.000	100.000	100.000	100.000	100.000	100.000	100.000	100.000	100.000	100.000	100.000	100.000	100.000	100.000	100.000	100.000	100.000	100.000	100.000	100.000	100.000	100.000	100.000	100.000	100.000	100.000	100.000	100.000	100.000	100.000	100.000	100.000	100.000	100.000	100.000	100.000	100.000	100.000	100.000	100.000	100.000	100.000	100.000	100.000	100.000	100.000
10000000000.000	10000000000.000	10000000000.000	10000000000.000	10000000000.000	10000000000.000	10000000000.000	10000000000.000	10000000000.000	10000000000.000	10000000000.000	10000000000.000	10000000000.000	10000000000.000	10000000000.000	10000000000.000	10000000000.000	10000000000.000	10000000000.000	10000000000.000	10000000000.000	10000000000.000	10000000000.000	10000000000.000	10000000000.000	10000000000.000	10000000000.000	10000000000.000	10000000000.000	10000000000.000	10000000000.000	10000000000.000	10000000000.000	10000000000.000	10000000000.000	10000000000.000	10000000000.000	10000000000.000	10000000000.000	10000000000.000	10000000000.000	10000000000.000	10000000000.000	10000000000.000	10000000000.000	10000000000.000	10000000000.000	10000000000.000	10.804	7.760	13.521	9.816	6.675	6.562	6.506	6.415	6.667	6.733	6.806	6.849	7.033	7.912	7.454	6.331	6.756	10.441	11.364	10.109	8.576	7.135	5.296	4.851	5.042	5.142	6.212	9.113	6.734	7.763	8.079	6.474	6.474	7.425	8.329	8.199	9.519	10.629	12.747	16.099	20.456	24.815	28.935	30.531	30.788	30.048	27.652	24.760	23.179	19.403	20.765	22.007	24.311	26.225	27.895	27.585	26.792	24.116	20.898	19.667	23.660	23.309	25.229	24.320	26.586	28.460	27.974	29.271	29.386	29.209	27.948	24.462	24.724	26.067	14.258	12.960	14.029	14.135	13.941	13.426	13.063	12.612	12.572	12.833	12.495	12.599	12.492	12.222	12.189	12.261	11.822	11.459	10.739	10.680	10.324	9.917	100.000	100.000	100.000	100.000	100.000	100.000	100.000	100.000	100.000	100.000	100.000	100.000	100.000	100.000	100.000	100.000	100.000	100.000	100.000	100.000	100.000	100.000	100.000	100.000	100.000	100.000	100.000	100.000	100.000	100.000	100.000	100.000	100.000	100.000	100.000	100.000	100.000	100.000	100.000	100.000	100.000	100.000	100.000	100.000	100.000	100.000	100.000	100.000
10000000000.000	10000000000.000	10000000000.000	10000000000.000	10000000000.000	10000000000.000	10000000000.000	10000000000.000	10000000000.000	10000000000.000	10000000000.000	10000000000.000	10000000000.000	10000000000.000	10000000000.000	10000000000.000	10000000000.000	10000000000.000	10000000000.000	10000000000.000	10000000000.000	10000000000.000	10000000000.000	10000000000.000	10000000000.000	10000000000.000	10000000000.000	10000000000.000	10000000000.000	10000000000.000	10000000000.000	10000000000.000	10000000000.000	10000000000.000	10000000000.000	10000000000.000	10000000000.000	10000000000.000	10000000000.000	10000000000.000	10000000000.000	10000000000.000	10000000000.000	10000000000.000	10000000000.000	10000000000.000	10000000000.000	10000000000.000	7.517	10.703	13.550	11.823	7.209	6.790	6.411	6.796	6.703	6.687	6.791	7.008	7.182	8.332	7.702	6.337	6.076	7.125	11.249	9.886	9.037	7.176	4.942	4.864	4.836	6.011	7.973	7.721	7.055	9.246	7.091	6.411	6.449	7.253	7.704	7.130	9.153	11.611	17.293	21.537	24.998	28.133	29.818	31.593	31.199	29.798	27.269	25.335	20.080	21.520	24.130	25.188	27.331	28.582	28.876	28.969	27.944	26.243	23.951	21.956	24.033	25.498	26.289	24.677	22.795	26.555	27.034	28.251	30.279	30.398	28.964	27.662	21.465	19.153	13.791	14.526	15.075	14.980	13.996	13.052	12.502	12.741	12.833	12.384	12.582	12.496	12.581	12.512	12.107	12.631	12.142	11.459	11.059	10.756	10.570	10.260	100.000	100.000	100.000	100.000	100.000	100.000	100.000	100.000	100.000	100.000	100.000	100.000	100.000	100.000	100.000	100.000	100.000	100.000	100.000	100.000	100.000	100.000	100.000	100.000	100.000	100.000	100.000	100.000	100.000	100.000	100.000	100.000	100.000	100.000	100.000	100.000	100.000	100.000	100.000	100.000	100.000	100.000	100.000	100.000	100.000	100.000	100.000	100.000
10000000000.000	10000000000.000	10000000000.000	10000000000.000	10000000000.000	10000000000.000	10000000000.000	10000000000.000	10000000000.000	10000000000.000	10000000000.000	10000000000.000	10000000000.000	10000000000.000	10000000000.000	10000000000.000	10000000000.000	10000000000.000	10000000000.000	10000000000.000	10000000000.000	10000000000.000	10000000000.000	10000000000.000	10000000000.000	10000000000.000	10000000000.000	10000000000.000	10000000000.000	10000000000.000	10000000000.000	10000000000.000	10000000000.000	10000000000.000	10000000000.000	10000000000.000	10000000000.000	10000000000.000	10000000000.000	10000000000.000	10000000000.000	10000000000.000	10000000000.000	10000000000.000	10000000000.000	10000000000.000	10000000000.000	10000000000.000	7.977	13.140	11.719	13.937	9.648	9.352	10.363	9.857	7.578	7.198	7.395	9.109	8.061	7.620	7.847	6.609	6.052	7.989	10.345	6.701	12.834	6.376	4.773	4.666	4.942	11.383	19.911	17.235	7.412	6.933	6.504	6.173	6.284	7.698	7.652	7.997	7.295	9.459	14.492	20.729	24.673	26.132	28.546	31.359	30.553	27.794	25.763	21.115	20.891	23.929	26.781	28.485	29.321	29.519	30.024	30.809	29.973	26.480	25.145	23.868	23.894	27.029	25.270	24.679	27.606	29.537	29.897	31.274	32.390	32.618	30.336	28.135	29.287	12.714	16.021	16.579	16.152	14.746	13.451	12.816	12.743	12.435	12.375	12.461	12.496	12.496	12.307	12.241	12.432	12.349	12.407	11.627	11.180	10.799	10.588	10.379	100.000	100.000	100.000	100.000	100.000	100.000	100.000	100.000	100.000	100.000	100.000	100.000	100.000	100.000	100.000	100.000	100.000	100.000	100.000	100.000	100.000	100.000	100.000	100.000	100.000	100.000	100.000	100.000	100.000	100.000	100.000	100.000	100.000	100.000	100.000	100.000	100.000	100.000	100.000	100.000	100.000	100.000	100.000	100.000	100.000	100.000	100.000	100.000
10000000000.000	10000000000.000	10000000000.000	10000000000.000	10000000000.000	10000000000.000	10000000000.000	10000000000.000	10000000000.000	10000000000.000	10000000000.000	10000000000.000	10000000000.000	10000000000.000	10000000000.000	10000000000.000	10000000000.000	10000000000.000	10000000000.000	10000000000.000	10000000000.000	10000000000.000	10000000000.000	10000000000.000	10000000000.000	10000000000.000	10000000000.000	10000000000.000	10000000000.000	10000000000.000	10000000000.000	10000000000.000	10000000000.000	10000000000.000	10000000000.000	10000000000.000	10000000000.000	10000000000.000	10000000000.000	10000000000.000	10000000000.000	10000000000.000	10000000000.000	10000000000.000	10000000000.000	10000000000.000	10000000000.000	10000000000.000	11.741	14.192	12.850	10.749	13.062	10.146	13.343	11.177	13.150	12.790	10.079	14.813	14.287	11.888	9.187	7.565	6.188	6.717	10.186	8.379	10.101	6.267	4.694	4.699	4.864	8.678	19.405	16.939	8.758	7.743	6.305	5.952	6.084	6.418	7.388	7.758	7.052	7.476	10.658	16.055	19.261	19.793	22.573	26.457	28.411	27.043	23.967	19.112	21.052	25.324	28.569	29.984	29.942	29.941	31.061	32.424	31.147	28.954	26.114	24.059	27.252	28.149	26.674	27.418	30.089	32.481	33.739	32.942	36.074	35.786	33.898	31.010	29.426	25.014	18.743	18.055	17.133	14.781	13.356	12.907	12.531	12.430	12.648	12.490	12.700	12.419	12.330	12.428	12.457	12.142	11.854	11.649	11.215	10.846	10.588	10.396	100.000	100.000	100.000	100.000	100.000	100.000	100.000	100.000	100.000	100.000	100.000	100.000	100.000	100.000	100.000	100.000	100.000	100.000	100.000	100.000	100.000	100.000	100.000	100.000	100.000	100.000	100.000	100.000	100.000	100.000	100.000	100.000	100.000	100.000	100.000	100.000	100.000	100.000	100.000	100.000	100.000	100.000	100.000	100.000	100.000	100.000	100.000	100.000
10000000000.000	10000000000.000	10000000000.000	10000000000.000	10000000000.000	10000000000.000	10000000000.000	10000000000.000	10000000000.000	10000000000.000	10000000000.000	10000000000.000	10000000000.000	10000000000.000	10000000000.000	10000000000.000	10000000000.000	10000000000.000	10000000000.000	10000000000.000	10000000000.000	10000000000.000	10000000000.000	10000000000.000	10000000000.000	10000000000.000	10000000000.000	10000000000.000	10000000000.000	10000000000.000	10000000000.000	10000000000.000	10000000000.000	10000000000.000	10000000000.000	10000000000.000	10000000000.000	10000000000.000	10000000000.000	10000000000.000	10000000000.000	10000000000.000	10000000000.000	10000000000.000	10000000000.000	10000000000.000	10000000000.000	10000000000.000	6.848	8.619	7.740	8.056	10.484	7.421	7.644	9.825	10.687	11.462	11.911	14.118	16.721	9.700	10.062	10.907	8.066	6.319	11.242	11.109	6.771	5.630	4.612	4.598	4.723	6.304	14.985	8.470	6.910	6.942	6.384	5.802	5.867	6.115	7.524	7.567	7.122	7.223	7.640	11.356	11.919	13.494	17.001	21.908	26.009	25.555	20.092	18.468	20.241	25.182	28.887	30.018	29.924	29.847	31.790	33.357	32.930	29.995	26.618	25.137	26.796	28.611	27.651	31.151	33.971	36.052	37.193	35.625	36.682	36.447	34.385	31.062	27.862	24.731	21.016	18.613	16.731	15.303	13.929	12.968	12.900	12.378	12.518	12.428	12.339	12.418	12.457	12.541	12.423	12.053	11.789	11.407	11.069	10.767	10.546	10.428	100.000	100.000	100.000	100.000	100.000	100.000	100.000	100.000	100.000	100.000	100.000	100.000	100.000	100.000	100.000	100.000	100.000	100.000	100.000	100.000	100.000	100.000	100.000	100.000	100.000	100.000	100.000	100.000	100.000	100.000	100.000	100.000	100.000	100.000	100.000	100.000	100.000	100.000	100.000	100.000	100.000	100.000	100.000	100.000	100.000	100.000	100.000	100.000
10000000000.000	10000000000.000	10000000000.000	10000000000.000	10000000000.000	10000000000.000	10000000000.000	10000000000.000	10000000000.000	10000000000.000	10000000000.000	10000000000.000	10000000000.000	10000000000.000	10000000000.000	10000000000.000	10000000000.000	10000000000.000	10000000000.000	10000000000.000	10000000000.000	10000000000.000	10000000000.000	10000000000.000	10000000000.000	10000000000.000	10000000000.000	10000000000.000	10000000000.000	10000000000.000	10000000000.000	10000000000.000	10000000000.000	10000000000.000	10000000000.000	10000000000.000	10000000000.000	10000000000.000	10000000000.000	10000000000.000	10000000000.000	10000000000.000	10000000000.000	10000000000.000	10000000000.000	10000000000.000	10000000000.000	10000000000.000	6.720	6.624	6.908	9.740	6.636	6.347	7.276	12.029	7.208	7.022	7.954	14.624	11.997	15.967	9.320	9.073	13.903	6.704	7.270	10.056	5.976	4.877	4.516	4.554	4.463	5.539	6.508	6.907	6.911	7.621	6.937	5.849	5.659	6.383	7.099	6.996	6.741	6.734	6.881	7.182	7.208	8.156	12.396	17.866	23.458	24.596	26.059	19.545	20.619	25.175	29.376	30.476	30.145	29.966	32.321	34.607	34.692	30.773	28.552	25.734	25.576	28.515	30.183	35.481	36.259	38.875	39.350	37.511	38.162	37.040	32.606	28.642	26.092	24.341	21.602	18.597	17.336	15.526	14.150	13.467	13.196	12.595	12.437	12.369	12.351	12.359	12.607	12.937	12.431	12.012	11.676	11.286	10.977	10.812	10.647	10.528	100.000	100.000	100.000	100.000	100.000	100.000	100.000	100.000	100.000	100.000	100.000	100.000	100.000	100.000	100.000	100.000	100.000	100.000	100.000	100.000	100.000	100.000	100.000	100.000	100.000	100.000	100.000	100.000	100.000	100.000	100.000	100.000	100.000	100.000	100.000	100.000	100.000	100.000	100.000	100.000	100.000	100.000	100.000	100.000	100.000	100.000	100.000	100.000
10000000000.000	10000000000.000	10000000000.000	10000000000.000	10000000000.000	10000000000.000	10000000000.000	10000000000.000	10000000000.000	10000000000.000	10000000000.000	10000000000.000	10000000000.000	10000000000.000	10000000000.000	10000000000.000	10000000000.000	10000000000.000	10000000000.000	10000000000.000	10000000000.000	10000000000.000	10000000000.000	10000000000.000	10000000000.000	10000000000.000	10000000000.000	10000000000.000	10000000000.000	10000000000.000	10000000000.000	10000000000.000	10000000000.000	10000000000.000	10000000000.000	10000000000.000	10000000000.000	10000000000.000	10000000000.000	10000000000.000	10000000000.000	10000000000.000	10000000000.000	10000000000.000	10000000000.000	10000000000.000	10000000000.000	10000000000.000	6.726	6.769	7.014	9.608	6.506	6.218	7.012	8.567	7.272	8.284	7.121	18.250	14.652	15.054	8.944	8.747	9.581	13.526	9.289	7.837	5.931	4.743	4.512	4.511	4.517	5.074	5.687	6.549	6.379	7.056	7.601	5.877	5.639	5.755	7.572	6.997	8.035	7.059	7.032	6.394	6.282	6.912	8.641	14.226	19.663	24.950	24.789	20.514	24.884	26.162	30.162	31.257	30.615	32.801	33.926	36.396	35.625	33.240	31.070	28.328	28.804	30.127	32.517	35.458	38.137	40.602	40.519	37.603	35.223	31.522	29.849	29.055	26.519	23.522	20.926	18.304	17.260	15.758	14.609	13.720	13.270	12.823	12.511	12.615	12.556	12.631	12.915	12.876	12.279	11.857	11.494	11.242	10.993	10.909	10.882	10.821	100.000	100.000	100.000	100.000	100.000	100.000	100.000	100.000	100.000	100.000	100.000	100.000	100.000	100.000	100.000	100.000	100.000	100.000	100.000	100.000	100.000	100.000	100.000	100.000	100.000	100.000	100.000	100.000	100.000	100.000	100.000	100.000	100.000	100.000	100.000	100.000	100.000	100.000	100.000	100.000	100.000	100.000	100.000	100.000	100.000	100.000	100.000	100.000
10000000000.000	10000000000.000	10000000000.000	10000000000.000	10000000000.000	10000000000.000	10000000000.000	10000000000.000	10000000000.000	10000000000.000	10000000000.000	10000000000.000	10000000000.000	10000000000.000	10000000000.000	10000000000.000	10000000000.000	10000000000.000	10000000000.000	10000000000.000	10000000000.000	10000000000.000	10000000000.000	10000000000.000	10000000000.000	10000000000.000	10000000000.000	10000000000.000	10000000000.000	10000000000.000	10000000000.000	10000000000.000	10000000000.000	10000000000.000	10000000000.000	10000000000.000	10000000000.000	10000000000.000	10000000000.000	10000000000.000	10000000000.000	10000000000.000	10000000000.000	10000000000.000	10000000000.000	10000000000.000	10000000000.000	10000000000.000	6.831	6.708	7.050	7.548	6.532	6.172	7.138	8.999	7.659	8.948	8.429	16.806	13.829	13.190	11.180	10.331	13.286	15.352	18.772	17.018	8.600	5.186	4.413	4.385	4.349	4.684	5.620	6.374	6.419	6.728	6.290	5.786	5.729	5.648	7.288	7.000	7.457	7.512	6.938	6.446	6.545	6.680	7.311	10.991	17.146	21.610	24.680	23.038	25.443	27.945	31.193	31.400	31.306	33.393	35.803	37.806	37.208	35.621	33.253	30.921	31.387	34.121	34.146	36.508	39.277	40.974	40.274	37.243	33.206	29.703	27.713	26.966	24.814	22.718	19.830	18.235	17.424	16.620	15.280	14.301	13.858	13.545	13.225	13.013	13.047	13.596	12.780	12.720	12.239	11.677	11.533	11.452	11.027	11.069	11.149	11.009	100.000	100.000	100.000	100.000	100.000	100.000	100.000	100.000	100.000	100.000	100.000	100.000	100.000	100.000	100.000	100.000	100.000	100.000	100.000	100.000	100.000	100.000	100.000	100.000	100.000	100.000	100.000	100.000	100.000	100.000	100.000	100.000	100.000	100.000	100.000	100.000	100.000	100.000	100.000	100.000	100.000	100.000	100.000	100.000	100.000	100.000	100.000	100.000
10000000000.000	10000000000.000	10000000000.000	10000000000.000	10000000000.000	10000000000.000	10000000000.000	10000000000.000	10000000000.000	10000000000.000	10000000000.000	10000000000.000	10000000000.000	10000000000.000	10000000000.000	10000000000.000	10000000000.000	10000000000.000	10000000000.000	10000000000.000	10000000000.000	10000000000.000	10000000000.000	10000000000.000	10000000000.000	10000000000.000	10000000000.000	10000000000.000	10000000000.000	10000000000.000	10000000000.000	10000000000.000	10000000000.000	10000000000.000	10000000000.000	10000000000.000	10000000000.000	10000000000.000	10000000000.000	10000000000.000	10000000000.000	10000000000.000	10000000000.000	10000000000.000	10000000000.000	10000000000.000	10000000000.000	10000000000.000	6.539	6.278	6.907	7.131	6.754	6.158	7.137	8.366	7.722	9.608	8.040	15.528	7.877	9.657	13.516	13.525	11.079	17.238	19.531	16.967	10.900	7.564	4.553	4.453	4.334	4.636	5.156	6.260	6.579	6.690	6.365	6.468	5.592	5.588	6.052	7.592	6.955	8.069	6.987	6.546	6.206	6.192	6.785	8.036	11.909	17.268	23.249	25.130	28.576	30.554	31.944	31.033	31.411	34.195	36.133	37.571	37.756	36.527	36.934	35.786	34.668	35.857	36.121	37.320	38.836	40.446	38.406	35.763	31.516	29.164	26.109	24.889	23.123	21.358	19.576	18.458	18.003	17.369	16.451	15.448	15.006	14.440	14.010	13.887	13.680	13.334	12.743	12.598	11.817	11.602	11.623	11.567	11.260	11.283	11.376	11.692	100.000	100.000	100.000	100.000	100.000	100.000	100.000	100.000	100.000	100.000	100.000	100.000	100.000	100.000	100.000	100.000	100.000	100.000	100.000	100.000	100.000	100.000	100.000	100.000	100.000	100.000	100.000	100.000	100.000	100.000	100.000	100.000	100.000	100.000	100.000	100.000	100.000	100.000	100.000	100.000	100.000	100.000	100.000	100.000	100.000	100.000	100.000	100.000
10000000000.000	10000000000.000	10000000000.000	10000000000.000	10000000000.000	10000000000.000	10000000000.000	10000000000.000	10000000000.000	10000000000.000	10000000000.000	10000000000.000	10000000000.000	10000000000.000	10000000000.000	10000000000.000	10000000000.000	10000000000.000	10000000000.000	10000000000.000	10000000000.000	10000000000.000	10000000000.000	10000000000.000	10000000000.000	10000000000.000	10000000000.000	10000000000.000	10000000000.000	10000000000.000	10000000000.000	10000000000.000	10000000000.000	10000000000.000	10000000000.000	10000000000.000	10000000000.000	10000000000.000	10000000000.000	10000000000.000	10000000000.000	10000000000.000	10000000000.000	10000000000.000	10000000000.000	10000000000.000	10000000000.000	10000000000.000	6.515	6.319	6.703	8.829	7.153	7.323	8.503	7.165	8.719	8.142	8.192	16.407	6.862	8.870	16.476	13.265	9.420	13.603	14.920	11.384	9.672	9.323	4.896	4.414	4.191	4.193	4.714	6.139	8.508	6.572	7.335	7.324	6.030	5.857	5.852	7.025	7.167	6.968	6.566	6.378	6.568	6.345	9.726	12.813	12.807	14.622	21.835	26.517	29.502	31.554	30.699	29.556	30.914	33.271	34.824	35.278	36.407	36.879	37.041	37.034	36.706	36.164	36.973	37.136	38.530	39.659	37.205	34.445	31.916	28.773	23.838	22.598	21.396	19.404	18.932	18.871	18.545	18.167	17.419	16.634	16.047	15.421	14.928	14.631	14.454	13.618	12.947	12.151	11.654	11.643	11.682	11.657	11.527	11.593	12.144	12.558	100.000	100.000	100.000	100.000	100.000	100.000	100.000	100.000	100.000	100.000	100.000	100.000	100.000	100.000	100.000	100.000	100.000	100.000	100.000	100.000	100.000	100.000	100.000	100.000	100.000	100.000	100.000	100.000	100.000	100.000	100.000	100.000	100.000	100.000	100.000	100.000	100.000	100.000	100.000	100.000	100.000	100.000	100.000	100.000	100.000	100.000	100.000	100.000
10000000000.000	10000000000.000	10000000000.000	10000000000.000	10000000000.000	10000000000.000	10000000000.000	10000000000.000	10000000000.000	10000000000.000	10000000000.000	10000000000.000	10000000000.000	10000000000.000	10000000000.000	10000000000.000	10000000000.000	10000000000.000	10000000000.000	10000000000.000	10000000000.000	10000000000.000	10000000000.000	10000000000.000	10000000000.000	10000000000.000	10000000000.000	10000000000.000	10000000000.000	10000000000.000	10000000000.000	10000000000.000	10000000000.000	10000000000.000	10000000000.000	10000000000.000	10000000000.000	10000000000.000	10000000000.000	10000000000.000	10000000000.000	10000000000.000	10000000000.000	10000000000.000	10000000000.000	10000000000.000	10000000000.000	10000000000.000	6.517	6.374	6.766	8.614	7.685	7.150	10.531	10.045	10.917	10.174	7.358	11.633	8.608	12.007	23.870	18.083	8.343	10.629	19.211	17.651	19.233	10.631	4.962	4.440	4.237	4.136	4.651	5.780	6.753	8.158	9.646	8.482	6.194	5.835	5.685	5.818	7.006	7.452	7.087	7.112	6.315	6.601	7.118	10.546	12.515	13.103	19.416	26.320	29.663	29.301	27.539	28.195	29.311	30.616	30.783	31.821	33.469	34.822	35.647	35.858	35.252	35.289	34.304	36.378	36.788	37.556	34.644	31.069	31.220	28.009	22.141	20.689	19.890	19.309	19.382	19.603	19.853	19.595	18.777	17.229	16.907	16.675	16.015	15.188	14.773	13.944	13.081	12.193	11.876	11.723	11.756	11.860	11.723	11.858	12.541	12.974	100.000	100.000	100.000	100.000	100.000	100.000	100.000	100.000	100.000	100.000	100.000	100.000	100.000	100.000	100.000	100.000	100.000	100.000	100.000	100.000	100.000	100.000	100.000	100.000	100.000	100.000	100.000	100.000	100.000	100.000	100.000	100.000	100.000	100.000	100.000	100.000	100.000	100.000	100.000	100.000	100.000	100.000	100.000	100.000	100.000	100.000	100.000	100.000
10000000000.000	10000000000.000	10000000000.000	10000000000.000	10000000000.000	10000000000.000	10000000000.000	10000000000.000	10000000000.000	10000000000.000	10000000000.000	10000000000.000	10000000000.000	10000000000.000	10000000000.000	10000000000.000	10000000000.000	10000000000.000	10000000000.000	10000000000.000	10000000000.000	10000000000.000	10000000000.000	10000000000.000	10000000000.000	10000000000.000	10000000000.000	10000000000.000	10000000000.000	10000000000.000	10000000000.000	10000000000.000	10000000000.000	10000000000.000	10000000000.000	10000000000.000	10000000000.000	10000000000.000	10000000000.000	10000000000.000	10000000000.000	10000000000.000	10000000000.000	10000000000.000	10000000000.000	10000000000.000	10000000000.000	10000000000.000	6.257	6.669	11.285	8.354	6.250	6.713	6.489	7.264	7.797	8.622	10.686	16.227	13.298	14.580	21.517	17.062	7.653	11.756	16.602	20.634	9.166	7.519	6.238	4.391	4.296	4.096	4.512	5.520	6.741	7.889	6.650	8.240	7.695	5.838	5.753	5.637	5.710	6.981	7.519	8.642	6.584	6.180	6.683	10.177	13.944	13.312	17.731	24.237	27.556	26.139	25.990	26.353	26.555	26.659	27.161	28.218	29.718	31.470	32.306	32.660	31.952	31.178	31.928	34.244	32.634	27.815	26.204	25.616	24.046	22.590	21.616	19.882	19.445	19.303	19.939	20.459	20.168	18.476	18.076	17.750	18.454	18.674	17.494	15.646	14.881	13.864	13.054	12.415	12.122	11.959	11.965	11.955	11.940	12.119	12.778	13.144	100.000	100.000	100.000	100.000	100.000	100.000	100.000	100.000	100.000	100.000	100.000	100.000	100.000	100.000	100.000	100.000	100.000	100.000	100.000	100.000	100.000	100.000	100.000	100.000	100.000	100.000	100.000	100.000	100.000	100.000	100.000	100.000	100.000	100.000	100.000	100.000	100.000	100.000	100.000	100.000	100.000	100.000	100.000	100.000	100.000	100.000	100.000	100.000
10000000000.000	10000000000.000	10000000000.000	10000000000.000	10000000000.000	10000000000.000	10000000000.000	10000000000.000	10000000000.000	10000000000.000	10000000000.000	10000000000.000	10000000000.000	10000000000.000	10000000000.000	10000000000.000	10000000000.000	10000000000.000	10000000000.000	10000000000.000	10000000000.000	10000000000.000	10000000000.000	10000000000.000	10000000000.000	10000000000.000	10000000000.000	10000000000.000	10000000000.000	10000000000.000	10000000000.000	10000000000.000	10000000000.000	10000000000.000	10000000000.000	10000000000.000	10000000000.000	10000000000.000	10000000000.000	10000000000.000	10000000000.000	10000000000.000	10000000000.000	10000000000.000	10000000000.000	10000000000.000	10000000000.000	10000000000.000	6.197	7.859	8.855	6.510	6.553	10.945	7.491	9.649	7.162	8.579	8.296	15.271	13.947	21.940	22.203	20.709	10.852	9.757	8.986	21.545	23.457	15.508	8.981	5.309	4.338	4.037	4.451	5.786	5.295	7.072	6.847	7.131	7.573	5.688	5.694	5.655	5.474	5.539	6.664	7.646	6.717	6.495	6.716	7.006	6.992	13.098	16.395	22.561	24.223	23.681	23.038	22.870	24.631	25.154	25.448	26.044	27.332	28.132	28.719	30.883	27.806	28.454	32.184	29.119	24.642	21.711	19.640	19.468	19.306	18.761	18.889	20.209	19.770	19.201	21.097	18.902	18.537	18.352	18.623	18.770	21.567	19.782	18.347	16.066	14.430	13.769	13.135	12.661	12.417	12.259	12.198	12.246	12.173	12.308	12.780	13.104	100.000	100.000	100.000	100.000	100.000	100.000	100.000	100.000	100.000	100.000	100.000	100.000	100.000	100.000	100.000	100.000	100.000	100.000	100.000	100.000	100.000	100.000	100.000	100.000	100.000	100.000	100.000	100.000	100.000	100.000	100.000	100.000	100.000	100.000	100.000	100.000	100.000	100.000	100.000	100.000	100.000	100.000	100.000	100.000	100.000	100.000	100.000	100.000
10000000000.000	10000000000.000	10000000000.000	10000000000.000	10000000000.000	10000000000.000	10000000000.000	10000000000.000	10000000000.000	10000000000.000	10000000000.000	10000000000.000	10000000000.000	10000000000.000	10000000000.000	10000000000.000	10000000000.000	10000000000.000	10000000000.000	10000000000.000	10000000000.000	10000000000.000	10000000000.000	10000000000.000	10000000000.000	10000000000.000	10000000000.000	10000000000.000	10000000000.000	10000000000.000	10000000000.000	10000000000.000	10000000000.000	10000000000.000	10000000000.000	10000000000.000	10000000000.000	10000000000.000	10000000000.000	10000000000.000	10000000000.000	10000000000.000	10000000000.000	10000000000.000	10000000000.000	10000000000.000	10000000000.000	10000000000.000	6.547	6.790	12.619	6.553	6.317	12.358	10.442	8.888	7.207	10.877	8.592	10.235	11.820	22.890	13.544	19.737	21.553	10.126	9.469	8.686	18.065	19.550	11.120	13.093	3.918	4.048	4.566	5.705	5.450	15.220	13.900	11.137	7.270	5.820	5.653	5.699	5.535	5.423	5.586	7.254	7.402	7.152	6.020	6.625	7.694	9.003	13.273	18.124	19.598	19.776	19.121	20.414	21.503	22.931	24.200	25.403	25.920	26.669	26.363	25.608	26.356	28.864	29.709	23.110	19.247	18.073	18.163	18.223	18.220	18.337	18.410	19.738	20.720	18.852	18.680	18.630	19.050	19.846	21.093	21.217	19.373	17.324	15.805	14.874	14.348	13.769	13.317	12.969	12.655	12.493	12.358	12.404	12.360	12.402	12.679	13.023	100.000	100.000	100.000	100.000	100.000	100.000	100.000	100.000	100.000	100.000	100.000	100.000	100.000	100.000	100.000	100.000	100.000	100.000	100.000	100.000	100.000	100.000	100.000	100.000	100.000	100.000	100.000	100.000	100.000	100.000	100.000	100.000	100.000	100.000	100.000	100.000	100.000	100.000	100.000	100.000	100.000	100.000	100.000	100.000	100.000	100.000	100.000	100.000
10000000000.000	10000000000.000	10000000000.000	10000000000.000	10000000000.000	10000000000.000	10000000000.000	10000000000.000	10000000000.000	10000000000.000	10000000000.000	10000000000.000	10000000000.000	10000000000.000	10000000000.000	10000000000.000	10000000000.000	10000000000.000	10000000000.000	10000000000.000	10000000000.000	10000000000.000	10000000000.000	10000000000.000	10000000000.000	10000000000.000	10000000000.000	10000000000.000	10000000000.000	10000000000.000	10000000000.000	10000000000.000	10000000000.000	10000000000.000	10000000000.000	10000000000.000	10000000000.000	10000000000.000	10000000000.000	10000000000.000	10000000000.000	10000000000.000	10000000000.000	10000000000.000	10000000000.000	10000000000.000	10000000000.000	10000000000.000	7.418	6.595	7.187	6.260	6.327	15.122	15.859	8.241	6.179	8.084	10.933	13.350	17.176	18.256	18.395	21.735	12.172	7.184	8.395	8.584	17.738	21.493	20.006	8.925	6.465	4.151	4.236	5.264	5.913	12.053	9.189	7.732	7.091	6.171	5.510	5.527	5.539	5.373	5.443	7.442	7.500	7.298	5.865	6.027	7.522	7.999	11.727	13.347	14.442	14.840	15.127	18.392	19.991	21.381	25.930	23.722	24.794	24.278	22.730	23.363	26.363	28.257	26.577	20.296	17.527	17.453	17.714	18.026	18.135	18.213	18.365	18.531	18.612	18.661	18.858	20.380	20.311	18.499	18.133	17.673	17.168	16.590	16.064	15.478	14.935	14.466	14.061	13.763	13.407	13.169	12.894	12.686	12.628	12.679	12.677	12.889	100.000	100.000	100.000	100.000	100.000	100.000	100.000	100.000	100.000	100.000	100.000	100.000	100.000	100.000	100.000	100.000	100.000	100.000	100.000	100.000	100.000	100.000	100.000	100.000	100.000	100.000	100.000	100.000	100.000	100.000	100.000	100.000	100.000	100.000	100.000	100.000	100.000	100.000	100.000	100.000	100.000	100.000	100.000	100.000	100.000	100.000	100.000	100.000
10000000000.000	10000000000.000	10000000000.000	10000000000.000	10000000000.000	10000000000.000	10000000000.000	10000000000.000	10000000000.000	10000000000.000	10000000000.000	10000000000.000	10000000000.000	10000000000.000	10000000000.000	10000000000.000	10000000000.000	10000000000.000	10000000000.000	10000000000.000	10000000000.000	10000000000.000	10000000000.000	10000000000.000	10000000000.000	10000000000.000	10000000000.000	10000000000.000	10000000000.000	10000000000.000	10000000000.000	10000000000.000	10000000000.000	10000000000.000	10000000000.000	10000000000.000	10000000000.000	10000000000.000	10000000000.000	10000000000.000	10000000000.000	10000000000.000	10000000000.000	10000000000.000	10000000000.000	10000000000.000	10000000000.000	10000000000.000	7.450	6.082	5.822	5.857	6.465	13.723	13.262	7.768	6.143	6.381	7.447	11.509	13.620	17.575	24.661	14.211	14.426	10.121	8.246	11.953	12.551	13.471	19.594	16.500	7.750	4.702	4.066	4.619	5.514	6.200	16.245	15.740	9.221	8.170	5.553	5.278	5.311	5.281	5.279	5.912	7.559	7.756	5.763	5.575	6.222	13.566	7.800	11.517	12.771	12.584	14.285	16.385	18.627	20.303	21.207	21.643	22.683	21.542	20.541	21.213	24.582	24.850	22.585	17.503	17.437	17.406	17.550	17.856	18.066	18.211	18.402	18.465	18.565	18.829	18.795	18.953	18.342	18.215	17.991	17.682	17.306	16.864	16.346	15.860	15.254	14.781	14.392	14.055	13.828	13.476	13.378	13.108	12.959	12.944	13.026	13.136	100.000	100.000	100.000	100.000	100.000	100.000	100.000	100.000	100.000	100.000	100.000	100.000	100.000	100.000	100.000	100.000	100.000	100.000	100.000	100.000	100.000	100.000	100.000	100.000	100.000	100.000	100.000	100.000	100.000	100.000	100.000	100.000	100.000	100.000	100.000	100.000	100.000	100.000	100.000	100.000	100.000	100.000	100.000	100.000	100.000	100.000	100.000	100.000
10000000000.000	10000000000.000	10000000000.000	10000000000.000	10000000000.000	10000000000.000	10000000000.000	10000000000.000	10000000000.000	10000000000.000	10000000000.000	10000000000.000	10000000000.000	10000000000.000	10000000000.000	10000000000.000	10000000000.000	10000000000.000	10000000000.000	10000000000.000	10000000000.000	10000000000.000	10000000000.000	10000000000.000	10000000000.000	10000000000.000	10000000000.000	10000000000.000	10000000000.000	10000000000.000	10000000000.000	10000000000.000	10000000000.000	10000000000.000	10000000000.000	10000000000.000	10000000000.000	10000000000.000	10000000000.000	10000000000.000	10000000000.000	10000000000.000	10000000000.000	10000000000.000	10000000000.000	10000000000.000	10000000000.000	10000000000.000	7.342	7.105	6.419	10.150	9.115	13.241	11.547	9.023	10.910	8.080	8.893	12.898	11.306	16.419	17.240	9.207	12.588	7.298	12.028	14.320	14.448	12.672	16.930	20.304	21.276	7.585	4.310	4.116	5.263	6.522	9.067	14.601	10.140	9.150	5.880	5.215	5.257	5.234	5.119	5.223	6.941	7.519	6.656	5.439	5.236	6.412	10.417	8.076	10.117	11.762	14.220	16.685	19.614	19.216	18.931	19.832	18.166	20.741	17.933	19.834	22.883	24.729	24.458	17.819	17.040	17.347	17.446	17.697	17.931	18.195	18.290	18.484	18.663	18.789	18.780	18.644	18.480	18.375	18.495	18.643	18.439	18.348	18.006	17.131	16.640	15.313	14.569	14.116	13.903	13.698	13.521	13.399	13.236	13.187	13.336	13.245	100.000	100.000	100.000	100.000	100.000	100.000	100.000	100.000	100.000	100.000	100.000	100.000	100.000	100.000	100.000	100.000	100.000	100.000	100.000	100.000	100.000	100.000	100.000	100.000	100.000	100.000	100.000	100.000	100.000	100.000	100.000	100.000	100.000	100.000	100.000	100.000	100.000	100.000	100.000	100.000	100.000	100.000	100.000	100.000	100.000	100.000	100.000	100.000
10000000000.000	10000000000.000	10000000000.000	10000000000.000	10000000000.000	10000000000.000	10000000000.000	10000000000.000	10000000000.000	10000000000.000	10000000000.000	10000000000.000	10000000000.000	10000000000.000	10000000000.000	10000000000.000	10000000000.000	10000000000.000	10000000000.000	10000000000.000	10000000000.000	10000000000.000	10000000000.000	10000000000.000	10000000000.000	10000000000.000	10000000000.000	10000000000.000	10000000000.000	10000000000.000	10000000000.000	10000000000.000	10000000000.000	10000000000.000	10000000000.000	10000000000.000	10000000000.000	10000000000.000	10000000000.000	10000000000.000	10000000000.000	10000000000.000	10000000000.000	10000000000.000	10000000000.000	10000000000.000	10000000000.000	10000000000.000	6.843	6.465	6.076	6.475	6.270	12.053	10.584	7.049	6.882	7.953	9.364	7.174	8.664	10.826	9.438	7.747	10.143	8.299	8.026	18.012	19.113	16.142	8.777	14.570	24.468	21.059	8.651	4.346	4.672	12.885	7.936	17.945	15.202	8.563	8.646	5.361	5.275	5.224	5.166	5.034	5.277	6.265	5.148	5.321	5.429	6.350	6.867	9.339	13.496	11.998	14.266	15.836	16.800	16.486	16.397	15.921	15.574	18.608	21.261	22.678	24.650	25.760	25.020	18.970	16.976	17.072	17.384	17.624	17.823	18.094	18.327	18.647	18.832	18.931	19.374	19.199	19.273	19.114	19.385	19.323	19.163	19.012	18.947	18.766	18.299	17.395	16.569	15.920	15.580	15.242	15.591	15.672	15.441	15.403	15.228	14.712	100.000	100.000	100.000	100.000	100.000	100.000	100.000	100.000	100.000	100.000	100.000	100.000	100.000	100.000	100.000	100.000	100.000	100.000	100.000	100.000	100.000	100.000	100.000	100.000	100.000	100.000	100.000	100.000	100.000	100.000	100.000	100.000	100.000	100.000	100.000	100.000	100.000	100.000	100.000	100.000	100.000	100.000	100.000	100.000	100.000	100.000	100.000	100.000
10000000000.000	10000000000.000	10000000000.000	10000000000.000	10000000000.000	10000000000.000	10000000000.000	10000000000.000	10000000000.000	10000000000.000	10000000000.000	10000000000.000	10000000000.000	10000000000.000	10000000000.000	10000000000.000	10000000000.000	10000000000.000	10000000000.000	10000000000.000	10000000000.000	10000000000.000	10000000000.000	10000000000.000	10000000000.000	10000000000.000	10000000000.000	10000000000.000	10000000000.000	10000000000.000	10000000000.000	10000000000.000	10000000000.000	10000000000.000	10000000000.000	10000000000.000	10000000000.000	10000000000.000	10000000000.000	10000000000.000	10000000000.000	10000000000.000	10000000000.000	10000000000.000	10000000000.000	10000000000.000	10000000000.000	10000000000.000	5.909	6.334	5.837	6.022	6.490	12.847	7.625	6.151	7.541	10.087	8.216	7.846	7.934	9.660	7.457	7.344	9.825	13.449	15.327	19.971	19.577	11.624	22.264	11.816	21.871	26.758	17.888	6.063	4.227	5.562	12.755	18.355	16.093	9.652	11.037	5.412	5.238	5.219	5.151	4.974	4.962	5.340	5.187	5.294	5.260	5.497	7.146	7.112	13.180	13.190	14.698	16.380	15.038	14.202	16.245	16.182	15.991	17.407	20.951	24.084	25.770	25.300	23.098	19.074	16.842	17.899	17.728	17.395	17.567	17.949	18.265	18.580	18.864	19.039	19.118	19.360	19.562	19.555	19.769	19.319	19.735	19.719	19.195	19.047	18.814	18.451	18.127	17.593	17.332	17.316	17.642	17.775	17.681	17.540	17.234	16.600	100.000	100.000	100.000	100.000	100.000	100.000	100.000	100.000	100.000	100.000	100.000	100.000	100.000	100.000	100.000	100.000	100.000	100.000	100.000	100.000	100.000	100.000	100.000	100.000	100.000	100.000	100.000	100.000	100.000	100.000	100.000	100.000	100.000	100.000	100.000	100.000	100.000	100.000	100.000	100.000	100.000	100.000	100.000	100.000	100.000	100.000	100.000	100.000
10000000000.000	10000000000.000	10000000000.000	10000000000.000	10000000000.000	10000000000.000	10000000000.000	10000000000.000	10000000000.000	10000000000.000	10000000000.000	10000000000.000	10000000000.000	10000000000.000	10000000000.000	10000000000.000	10000000000.000	10000000000.000	10000000000.000	10000000000.000	10000000000.000	10000000000.000	10000000000.000	10000000000.000	10000000000.000	10000000000.000	10000000000.000	10000000000.000	10000000000.000	10000000000.000	10000000000.000	10000000000.000	10000000000.000	10000000000.000	10000000000.000	10000000000.000	10000000000.000	10000000000.000	10000000000.000	10000000000.000	10000000000.000	10000000000.000	10000000000.000	10000000000.000	10000000000.000	10000000000.000	10000000000.000	10000000000.000	9.124	6.303	5.624	5.805	6.067	13.907	7.060	6.273	8.207	7.231	6.456	9.520	9.840	7.419	7.664	10.254	7.880	21.320	9.832	18.340	15.313	8.469	16.099	22.597	14.572	17.892	21.118	8.198	4.439	4.287	6.599	7.680	6.520	10.175	10.361	5.759	5.206	5.257	5.182	5.004	4.975	4.963	5.079	5.072	5.029	5.137	5.438	6.453	6.825	10.660	12.367	13.771	14.073	13.854	14.322	15.266	16.049	19.307	22.293	24.527	24.766	22.875	20.270	17.152	16.545	16.807	17.107	17.354	17.582	17.850	18.028	18.547	18.718	18.993	19.204	19.409	19.622	19.593	19.584	19.393	22.063	23.072	21.782	21.446	18.755	18.697	18.345	18.076	18.033	17.893	18.213	18.240	18.621	18.661	18.440	17.744	100.000	100.000	100.000	100.000	100.000	100.000	100.000	100.000	100.000	100.000	100.000	100.000	100.000	100.000	100.000	100.000	100.000	100.000	100.000	100.000	100.000	100.000	100.000	100.000	100.000	100.000	100.000	100.000	100.000	100.000	100.000	100.000	100.000	100.000	100.000	100.000	100.000	100.000	100.000	100.000	100.000	100.000	100.000	100.000	100.000	100.000	100.000	100.000
10000000000.000	10000000000.000	10000000000.000	10000000000.000	10000000000.000	10000000000.000	10000000000.000	10000000000.000	10000000000.000	10000000000.000	10000000000.000	10000000000.000	10000000000.000	10000000000.000	10000000000.000	10000000000.000	10000000000.000	10000000000.000	10000000000.000	10000000000.000	10000000000.000	10000000000.000	10000000000.000	10000000000.000	10000000000.000	10000000000.000	10000000000.000	10000000000.000	10000000000.000	10000000000.000	10000000000.000	10000000000.000	10000000000.000	10000000000.000	10000000000.000	10000000000.000	10000000000.000	10000000000.000	10000000000.000	10000000000.000	10000000000.000	10000000000.000	10000000000.000	10000000000.000	10000000000.000	10000000000.000	10000000000.000	10000000000.000	9.426	5.723	6.285	5.993	5.842	12.759	8.145	6.804	7.449	8.563	8.515	7.822	10.694	15.598	7.684	7.852	9.166	10.755	18.898	11.266	6.807	11.988	5.739	7.702	6.591	20.765	19.376	10.253	5.247	3.894	6.413	7.290	5.030	6.601	9.928	9.258	5.288	5.156	5.178	5.097	4.860	4.917	4.761	4.809	4.969	5.073	5.265	5.312	7.230	10.345	10.577	8.656	8.979	10.774	13.119	14.766	17.623	20.106	22.328	22.509	21.664	17.012	15.684	15.778	16.207	16.573	17.777	19.102	17.557	17.589	17.789	18.280	18.638	19.257	19.448	19.703	19.810	19.664	19.468	19.361	19.640	19.742	20.355	19.078	18.769	18.549	18.291	18.103	18.090	18.146	18.198	18.343	18.607	18.685	18.565	18.499	100.000	100.000	100.000	100.000	100.000	100.000	100.000	100.000	100.000	100.000	100.000	100.000	100.000	100.000	100.000	100.000	100.000	100.000	100.000	100.000	100.000	100.000	100.000	100.000	100.000	100.000	100.000	100.000	100.000	100.000	100.000	100.000	100.000	100.000	100.000	100.000	100.000	100.000	100.000	100.000	100.000	100.000	100.000	100.000	100.000	100.000	100.000	100.000
10000000000.000	10000000000.000	10000000000.000	10000000000.000	10000000000.000	10000000000.000	10000000000.000	10000000000.000	10000000000.000	10000000000.000	10000000000.000	10000000000.000	10000000000.000	10000000000.000	10000000000.000	10000000000.000	10000000000.000	10000000000.000	10000000000.000	10000000000.000	10000000000.000	10000000000.000	10000000000.000	10000000000.000	10000000000.000	10000000000.000	10000000000.000	10000000000.000	10000000000.000	10000000000.000	10000000000.000	10000000000.000	10000000000.000	10000000000.000	10000000000.000	10000000000.000	10000000000.000	10000000000.000	10000000000.000	10000000000.000	10000000000.000	10000000000.000	10000000000.000	10000000000.000	10000000000.000	10000000000.000	10000000000.000	10000000000.000	5.903	6.379	8.581	6.022	5.894	13.317	10.336	7.248	7.212	6.564	6.748	7.144	7.882	14.315	7.599	7.163	10.766	11.359	16.148	7.477	16.267	6.800	5.425	5.324	5.347	5.747	6.386	17.362	7.493	3.874	4.155	5.443	5.619	5.908	11.376	9.873	5.385	5.203	5.150	5.058	4.924	4.829	4.795	4.740	5.027	5.136	5.102	5.926	5.942	6.211	10.910	8.112	7.956	8.381	13.386	15.324	18.414	19.116	19.995	18.666	15.908	15.070	19.536	16.379	16.349	16.284	18.204	18.465	17.661	17.255	17.755	18.634	19.326	19.984	20.241	20.234	19.772	19.610	19.505	19.751	19.328	18.842	18.956	18.744	18.767	18.571	18.273	18.170	18.165	18.134	18.218	18.376	18.380	18.380	18.404	18.456	100.000	100.000	100.000	100.000	100.000	100.000	100.000	100.000	100.000	100.000	100.000	100.000	100.000	100.000	100.000	100.000	100.000	100.000	100.000	100.000	100.000	100.000	100.000	100.000	100.000	100.000	100.000	100.000	100.000	100.000	100.000	100.000	100.000	100.000	100.000	100.000	100.000	100.000	100.000	100.000	100.000	100.000	100.000	100.000	100.000	100.000	100.000	100.000
10000000000.000	10000000000.000	10000000000.000	10000000000.000	10000000000.000	10000000000.000	10000000000.000	10000000000.000	10000000000.000	10000000000.000	10000000000.000	10000000000.000	10000000000.000	10000000000.000	10000000000.000	10000000000.000	10000000000.000	10000000000.000	10000000000.000	10000000000.000	10000000000.000	10000000000.000	10000000000.000	10000000000.000	10000000000.000	10000000000.000	10000000000.000	10000000000.000	10000000000.000	10000000000.000	10000000000.000	10000000000.000	10000000000.000	10000000000.000	10000000000.000	10000000000.000	10000000000.000	10000000000.000	10000000000.000	10000000000.000	10000000000.000	10000000000.000	10000000000.000	10000000000.000	10000000000.000	10000000000.000	10000000000.000	10000000000.000	6.491	5.668	6.357	6.390	8.070	6.274	7.070	6.744	6.339	11.516	6.862	6.875	9.773	10.626	12.449	17.724	8.081	7.783	7.726	7.297	13.504	5.774	5.132	5.162	5.215	5.286	6.343	6.982	5.428	3.833	3.816	4.174	5.272	5.431	8.280	7.942	5.519	5.315	5.074	4.899	4.911	4.829	4.777	5.055	5.157	4.967	5.596	6.277	11.176	6.153	8.891	7.872	8.065	8.459	13.288	14.699	16.842	16.755	15.544	13.668	14.625	18.098	20.386	17.217	15.654	15.797	18.489	19.108	16.856	17.358	18.096	19.426	20.652	21.452	21.557	20.580	19.796	19.623	19.397	19.090	18.901	18.524	18.621	18.679	18.707	18.678	18.301	17.880	17.991	18.068	18.170	18.203	18.262	18.271	18.267	18.357	100.000	100.000	100.000	100.000	100.000	100.000	100.000	100.000	100.000	100.000	100.000	100.000	100.000	100.000	100.000	100.000	100.000	100.000	100.000	100.000	100.000	100.000	100.000	100.000	100.000	100.000	100.000	100.000	100.000	100.000	100.000	100.000	100.000	100.000	100.000	100.000	100.000	100.000	100.000	100.000	100.000	100.000	100.000	100.000	100.000	100.000	100.000	100.000
10000000000.000	10000000000.000	10000000000.000	10000000000.000	10000000000.000	10000000000.000	10000000000.000	10000000000.000	10000000000.000	10000000000.000	10000000000.000	10000000000.000	10000000000.000	10000000000.000	10000000000.000	10000000000.000	10000000000.000	10000000000.000	10000000000.000	10000000000.000	10000000000.000	10000000000.000	10000000000.000	10000000000.000	10000000000.000	10000000000.000	10000000000.000	10000000000.000	10000000000.000	10000000000.000	10000000000.000	10000000000.000	10000000000.000	10000000000.000	10000000000.000	10000000000.000	10000000000.000	10000000000.000	10000000000.000	10000000000.000	10000000000.000	10000000000.000	10000000000.000	10000000000.000	10000000000.000	10000000000.000	10000000000.000	10000000000.000	5.532	5.480	5.560	5.718	5.783	5.877	5.993	6.061	6.197	6.175	6.370	6.506	6.847	7.021	7.301	7.062	6.697	6.316	5.855	5.389	5.083	4.786	5.153	5.247	5.895	5.569	6.549	20.926	23.373	4.012	3.608	3.507	4.620	5.560	5.777	8.643	8.381	5.203	5.066	4.991	4.843	5.086	4.917	4.772	4.632	4.804	5.460	8.396	11.912	6.110	6.046	7.188	7.856	8.378	10.669	13.045	13.679	12.103	12.525	13.505	14.793	15.242	14.954	12.049	13.117	14.226	15.360	16.316	16.775	17.465	18.847	20.769	22.381	22.706	22.091	20.277	19.766	19.565	19.219	18.745	18.637	18.540	18.678	18.850	18.941	19.270	19.082	18.749	18.281	18.195	17.887	18.046	18.155	18.302	18.339	18.415	100.000	100.000	100.000	100.000	100.000	100.000	100.000	100.000	100.000	100.000	100.000	100.000	100.000	100.000	100.000	100.000	100.000	100.000	100.000	100.000	100.000	100.000	100.000	100.000	100.000	100.000	100.000	100.000	100.000	100.000	100.000	100.000	100.000	100.000	100.000	100.000	100.000	100.000	100.000	100.000	100.000	100.000	100.000	100.000	100.000	100.000	100.000	100.000
10000000000.000	10000000000.000	10000000000.000	10000000000.000	10000000000.000	10000000000.000	10000000000.000	10000000000.000	10000000000.000	10000000000.000	10000000000.000	10000000000.000	10000000000.000	10000000000.000	10000000000.000	10000000000.000	10000000000.000	10000000000.000	10000000000.000	10000000000.000	10000000000.000	10000000000.000	10000000000.000	10000000000.000	10000000000.000	10000000000.000	10000000000.000	10000000000.000	10000000000.000	10000000000.000	10000000000.000	10000000000.000	10000000000.000	10000000000.000	10000000000.000	10000000000.000	10000000000.000	10000000000.000	10000000000.000	10000000000.000	10000000000.000	10000000000.000	10000000000.000	10000000000.000	10000000000.000	10000000000.000	10000000000.000	10000000000.000	7.973	5.477	5.491	7.312	7.847	6.638	6.846	7.759	7.288	10.634	17.156	11.727	8.648	7.489	9.027	6.735	7.037	6.732	7.238	12.118	5.868	6.483	15.114	6.131	16.063	17.753	8.517	13.110	15.809	6.983	3.929	3.524	3.687	5.880	6.862	9.914	9.629	5.747	5.227	5.021	5.081	4.868	4.798	4.727	4.560	4.825	6.714	10.465	10.959	6.462	7.590	7.248	7.231	8.077	8.910	10.152	12.732	11.864	10.754	11.116	11.371	10.216	9.856	10.561	12.172	14.356	15.479	16.070	16.630	17.969	20.426	21.621	22.733	22.998	23.091	21.807	20.210	19.209	18.454	18.025	18.149	18.583	18.797	19.068	19.872	20.594	20.976	20.867	20.294	19.532	18.683	18.537	18.218	18.089	18.315	18.274	100.000	100.000	100.000	100.000	100.000	100.000	100.000	100.000	100.000	100.000	100.000	100.000	100.000	100.000	100.000	100.000	100.000	100.000	100.000	100.000	100.000	100.000	100.000	100.000	100.000	100.000	100.000	100.000	100.000	100.000	100.000	100.000	100.000	100.000	100.000	100.000	100.000	100.000	100.000	100.000	100.000	100.000	100.000	100.000	100.000	100.000	100.000	100.000
10000000000.000	10000000000.000	10000000000.000	10000000000.000	10000000000.000	10000000000.000	10000000000.000	10000000000.000	10000000000.000	10000000000.000	10000000000.000	10000000000.000	10000000000.000	10000000000.000	10000000000.000	10000000000.000	10000000000.000	10000000000.000	10000000000.000	10000000000.000	10000000000.000	10000000000.000	10000000000.000	10000000000.000	10000000000.000	10000000000.000	10000000000.000	10000000000.000	10000000000.000	10000000000.000	10000000000.000	10000000000.000	10000000000.000	10000000000.000	10000000000.000	10000000000.000	10000000000.000	10000000000.000	10000000000.000	10000000000.000	10000000000.000	10000000000.000	10000000000.000	10000000000.000	10000000000.000	10000000000.000	10000000000.000	10000000000.000	5.368	8.504	5.587	6.970	5.655	5.740	6.216	9.317	8.852	15.370	21.596	25.339	8.734	18.134	8.970	6.857	6.936	13.136	24.701	20.900	17.670	14.666	18.992	14.483	12.061	11.602	6.213	6.975	8.030	11.514	4.708	3.610	3.445	8.506	8.992	9.977	9.733	5.877	5.249	4.922	4.789	4.895	4.815	4.732	4.574	5.762	10.281	9.104	9.374	6.492	7.363	7.709	7.318	8.856	7.900	7.932	7.062	7.120	8.791	7.354	7.054	7.925	8.795	9.885	12.341	15.305	15.818	16.361	16.453	18.735	20.508	21.748	22.998	23.723	27.491	23.197	21.647	18.864	17.264	19.837	17.615	18.543	19.448	20.122	20.621	21.032	21.210	21.315	21.464	21.336	20.574	19.481	18.703	18.535	18.600	18.410	100.000	100.000	100.000	100.000	100.000	100.000	100.000	100.000	100.000	100.000	100.000	100.000	100.000	100.000	100.000	100.000	100.000	100.000	100.000	100.000	100.000	100.000	100.000	100.000	100.000	100.000	100.000	100.000	100.000	100.000	100.000	100.000	100.000	100.000	100.000	100.000	100.000	100.000	100.000	100.000	100.000	100.000	100.000	100.000	100.000	100.000	100.000	100.000
